ply
format ascii 1.0
comment Created by CloudCompare v2.11 alpha (Anoia)
comment Created 15/10/2019 14:55
obj_info Generated by CloudCompare!
element vertex 738
property float x
property float y
property float z
property uchar red
property uchar green
property uchar blue
property float nx
property float ny
property float nz
end_header
-48.0772 35.0807 -75.7975 126 121 135 0.227628 0.0474731 0.97259 
-46.0501 36.1116 -76.8866 174 167 182 0.562432 0.131382 0.816339 
-47.4829 37.961 -76.3899 112 107 117 0.419421 0.0665101 0.905352 
-48.8936 35.2984 -75.3909 140 141 148 0.689607 0.0647856 0.72128 
-48.2387 35.4293 -75.8744 41 42 47 0.453548 0.0589201 0.889282 
-45.2681 36.6716 -77.4632 77 71 83 0.484633 0.110079 0.867764 
-48.9559 34.5688 -75.275 81 77 89 0.607289 0.0436797 0.79328 
-46.9977 38.2101 -76.7029 106 102 112 0.272953 0.00606563 0.962008 
-47.0714 36.9644 -76.5273 146 148 147 0.573711 0.154288 0.804394 
-46.4049 36.5615 -76.8416 115 114 121 0.311026 0.220132 0.924556 
-46.069 37.0191 -77.0835 119 113 125 0.247585 0.552783 0.795696 
-47.8046 35.491 -76.0587 39 43 55 0.440632 0.108398 0.891119 
-47.3467 37.3909 -76.4956 135 133 134 0.2387 -0.355853 0.903544 
-46.1654 35.4362 -76.9 64 63 75 0.343782 0.0783133 0.935778 
-49.6755 34.192 -74.8869 134 131 139 0.399593 0.474011 0.784626 
-47.2531 35.8291 -76.2079 48 54 66 0.436095 0.0584177 0.898003 
-47.6273 36.949 -76.0624 133 151 127 0.466546 0.370351 0.803228 
-49.525 34.3641 -74.9107 159 158 165 0.436657 0.345227 0.830752 
-47.9155 37.0215 -76.0078 125 143 124 0.50276 0.0982732 0.858822 
-47.3977 34.9639 -76.2511 51 50 67 0.347199 0.127627 0.929066 
-49.7447 34.4736 -74.8404 97 93 102 0.449727 0.401369 0.797903 
-50.3205 37.1246 -74.9196 142 139 147 0.460176 0.283543 0.841333 
-45.7066 38.4144 -77.5018 84 80 93 0.602954 0.218552 0.767256 
-48.1427 36.9295 -75.807 124 138 125 0.22536 0.473407 0.851527 
-48.3381 37.2086 -75.9697 108 106 108 0.228554 0.470731 0.852159 
-45.1596 35.6977 -77.3601 115 113 121 0.372688 -0.0820721 0.92432 
-47.4567 36.092 -73.7232 126 152 135 0.68543 -0.162619 0.709747 
-46.3627 36.649 -76.8637 150 144 155 0.564786 0.193336 0.80227 
-47.4102 35.9185 -76.0888 36 43 52 0.64784 -0.192352 0.737091 
-46.7643 36.3194 -76.4304 79 76 85 0.722951 0.189601 0.664375 
-46.7355 35.2686 -76.5224 43 43 59 0.335365 0.106401 0.93606 
-46.7348 36.6452 -76.59 88 82 87 0.496827 0.377071 0.781653 
-49.2686 34.7672 -75.1764 135 131 142 0.529599 0.1335 0.837677 
-46.5573 36.1605 -76.6123 102 97 111 0.720167 0.199788 0.664412 
-47.1097 38.1552 -76.522 60 56 66 0.262692 0.0108951 0.964818 
-48.8952 34.9726 -75.3918 174 172 183 0.635886 0.070654 0.768542 
-46.1494 35.5223 -76.9493 98 98 109 0.443026 -0.613549 0.653672 
-45.3043 36.2723 -77.4506 123 119 128 0.39803 0.136427 0.907171 
-46.5383 35.9331 -76.5107 46 47 63 0.462988 -0.20827 0.861548 
-50.3819 36.8919 -74.8014 79 76 82 0.459379 0.279958 0.842968 
-45.5176 35.4467 -77.2055 51 48 56 0.371735 -0.159719 0.914496 
-46.439 36.8025 -76.9561 124 117 127 0.386582 -0.490102 0.781252 
-49.3022 36.7526 -75.318 110 108 117 0.511002 0.142026 0.847765 
-45.7212 37.7968 -77.3618 95 93 103 0.25366 -0.375299 0.89152 
-45.9043 34.959 -76.9986 102 100 113 0.503485 0.418204 0.756048 
-46.7454 34.5041 -76.5602 173 170 184 0.370572 -0.476449 0.797291 
-47.5449 37.9695 -76.3875 110 108 117 0.38568 -0.36382 0.847872 
-45.9642 35.1324 -76.9914 107 104 117 0.469104 0.391726 0.791512 
-48.8036 36.3107 -74.9538 132 135 135 -0.21824 0.938294 0.268283 
-48.6314 36.4028 -75.391 88 108 95 0.565656 -0.00408908 0.824631 
-45.9593 34.699 -76.8951 117 114 127 0.504231 0.384253 0.77337 
-49.5446 35.0536 -74.8775 85 84 90 0.384641 0.0656705 0.920727 
-45.6754 35.2494 -77.0652 58 55 66 0.541902 0.149951 0.826957 
-46.8038 37.056 -76.7843 117 114 120 0.378093 -0.438716 0.815214 
-46.6642 35.7412 -76.5203 82 82 99 0.551618 -0.29409 0.780531 
-48.1933 34.4933 -75.7154 88 83 96 0.456162 0.0850944 0.885819 
-47.4672 36.5563 -76.0629 88 109 91 0.648905 0.185621 0.73788 
-46.0483 35.3699 -77.017 63 59 72 0.469695 0.388992 0.79251 
-48.1737 34.8782 -75.8246 149 144 156 0.446568 -0.404652 0.798019 
-45.3666 37.6132 -77.5893 43 38 51 0.424618 0.211569 0.880306 
-45.8341 37.8547 -77.3676 98 94 107 0.568854 0.163602 0.806002 
-45.8867 37.1673 -77.2453 144 138 149 0.276313 -0.464637 0.841287 
-47.2001 37.8597 -76.4833 129 124 132 0.293956 -0.314636 0.902548 
-47.4286 37.729 -76.4844 113 109 116 0.568504 0.183437 0.801969 
-47.3509 36.0403 -75.9856 42 51 55 0.450498 0.087868 0.888443 
-46.7432 37.8703 -76.8025 139 132 144 0.400146 0.51774 0.756194 
-49.5801 35.7928 -74.8714 113 115 123 0.424641 0.503339 0.752549 
-48.2189 37.5513 -75.9348 162 164 166 0.389538 0.154399 0.907977 
-46.7822 38.0311 -76.7694 88 82 94 0.510327 0.316371 0.799672 
-48.8373 34.6093 -75.3793 65 62 73 0.653735 -0.126577 0.746062 
-44.9338 35.964 -77.4782 76 73 80 0.384344 0.0998473 0.917775 
-50.0953 35.9353 -74.7441 121 119 120 0.500256 0.247819 0.829656 
-48.1411 35.2744 -75.6883 52 51 62 0.749175 -0.240302 0.617245 
-48.2341 34.4225 -75.7182 66 61 74 0.466179 0.0853961 0.88056 
-49.5081 34.9199 -74.9196 49 45 56 0.340577 0.0372707 0.939478 
-46.6384 37.5684 -76.82 170 163 173 0.579014 0.134758 0.804104 
-46.7697 37.5135 -76.748 120 112 123 0.507702 0.326266 0.797363 
-49.489 34.3494 -75.014 110 105 116 0.550024 0.134188 0.824298 
-46.5885 38.0372 -76.9729 48 41 54 0.406974 0.511578 0.756743 
-48.9754 37.1397 -75.6113 163 172 168 0.681932 -0.220028 0.697536 
-45.9653 35.007 -77.0125 96 95 106 0.375114 -0.00127157 0.926978 
-46.389 35.4614 -76.7758 44 44 57 0.321032 0.0999064 0.941784 
-48.0975 37.0771 -75.8079 71 88 77 0.575716 0.154023 0.803012 
-46.2841 36.846 -76.9275 117 111 122 0.566537 0.166805 0.806977 
-45.1145 35.1947 -77.5256 98 93 106 0.432422 -0.114092 0.894424 
-46.5391 36.9055 -76.9798 110 108 112 0.356391 -0.520879 0.775674 
-49.8135 34.5207 -74.8083 76 71 81 0.346727 -0.244318 0.905587 
-49.2096 36.4892 -75.2601 164 174 170 0.166622 -0.274993 0.946898 
-48.9613 35.6332 -75.0732 61 62 66 0.364455 -0.480053 0.797948 
-46.7498 35.7059 -76.349 42 43 61 0.58279 -0.345778 0.735387 
-47.2341 38.0064 -76.5875 112 106 116 0.45242 0.426475 0.783221 
-47.4271 35.8593 -73.7756 94 115 104 0.600703 0.164928 0.782275 
-46.752 35.8053 -76.5052 87 88 105 0.532982 0.0871632 0.841625 
-48.9617 35.9188 -75.1552 74 81 78 0.380143 -0.380143 0.843198 
-45.5507 36.38 -77.2014 71 64 76 0.486368 -0.0424715 0.872721 
-46.9359 34.9442 -76.3159 39 39 57 0.438716 -0.378093 0.815214 
-46.6263 38.2262 -76.9627 113 106 119 0.485137 0.400765 0.777193 
-48.5611 34.1522 -75.4462 126 120 131 0.487398 0.036862 0.872401 
-49.8413 35.0882 -74.8241 94 91 101 0.640381 -0.325865 0.695503 
-47.4035 35.0044 -76.2795 49 46 65 0.463597 0.214545 0.859679 
-49.3934 37.4198 -75.384 127 124 134 0.437034 0.309501 0.844518 
-48.366 36.1314 -74.7192 92 107 98 0.00685849 0.802443 0.596689 
-47.8914 37.8629 -76.184 81 74 83 0.444511 0.120714 0.887602 
-50.2312 36.9632 -74.8786 83 82 88 0.496764 0.119511 0.859618 
-47.0371 35.426 -76.3595 42 42 61 0.513864 0.110833 0.850682 
-46.9642 35.2818 -76.4222 42 42 61 0.350642 -0.250878 0.902281 
-47.0225 37.3783 -76.5321 89 81 89 0.507702 0.326266 0.797363 
-47.3564 35.777 -76.1093 26 33 43 0.472199 -0.137183 0.870752 
-46.8407 37.2787 -76.6208 199 192 200 0.508228 0.323418 0.798189 
-47.0646 37.3493 -76.4268 142 135 141 0.524257 0.288105 0.801342 
-46.9663 37.5677 -76.6389 85 78 87 0.504806 0.329637 0.797816 
-48.1289 37.1307 -75.9241 127 138 127 0.42503 0.182573 0.886576 
-46.0075 38.4058 -77.3256 83 80 92 0.513212 0.25273 0.820208 
-50.1986 35.9364 -74.7495 102 100 104 0.414613 -0.364165 0.833954 
-46.4831 34.911 -76.733 60 56 71 0.473728 0.222486 0.852105 
-49.6567 34.0303 -74.833 135 130 140 0.465171 0.31168 0.828536 
-47.6582 36.0571 -73.5826 52 76 61 0.455235 0.29365 0.840554 
-48.9103 34.7165 -75.3535 142 140 150 0.56908 0.0550723 0.820436 
-47.5939 36.6243 -75.7642 63 78 62 0.157318 0.576832 0.801571 
-46.651 35.285 -76.5969 47 46 63 0.527929 -0.0287961 0.8488 
-47.9909 35.6916 -75.4871 52 59 61 0.677541 -0.437821 0.590975 
-47.7089 37.4897 -76.2023 120 119 118 0.527016 0.242644 0.81448 
-49.8043 34.1506 -74.8467 78 73 83 0.505129 0.248702 0.826433 
-46.2647 34.7518 -76.8524 57 54 68 0.469657 0.252421 0.845994 
-50.1166 36.6184 -74.9781 156 157 161 0.383864 0.46417 0.798244 
-45.413 35.6124 -77.1596 125 118 131 0.447912 0.120865 0.88587 
-46.8933 35.3073 -76.4642 55 55 73 0.521767 -0.26322 0.811464 
-47.9751 35.766 -75.9213 33 37 47 0.459533 0.115239 0.880653 
-47.2825 35.8795 -76.1098 35 41 53 0.641117 -0.230426 0.732033 
-48.9595 34.5943 -75.2537 83 80 92 0.70273 -0.0210398 0.711146 
-49.6119 33.8025 -74.7505 97 92 100 0.523968 0.253432 0.81316 
-47.8226 37.889 -76.1772 96 89 97 0.54983 0.127561 0.825479 
-48.0221 37.9266 -76.1018 93 87 95 0.467827 0.377798 0.799003 
-47.2769 35.8274 -73.8777 51 74 61 0.63911 -0.195583 0.743832 
-45.8359 35.7589 -77.0612 65 61 75 0.595111 -0.0792521 0.799726 
-47.7013 37.9113 -76.2927 139 132 141 0.545511 0.130864 0.827824 
-49.8261 34.9543 -74.8013 119 115 126 0.63928 -0.33672 0.691333 
-47.6996 35.2673 -76.0167 49 45 63 0.36471 0.0847851 0.927253 
-49.4898 35.315 -75.0177 46 45 51 0.410816 -0.549404 0.727589 
-48.4668 34.4977 -75.5752 113 109 120 0.375515 -0.575571 0.726434 
-47.7212 37.5202 -76.2381 120 113 116 0.478377 0.341698 0.808949 
-47.3093 35.8055 -76.0507 34 41 52 0.648905 0.185621 0.73788 
-49.5472 36.276 -75.1544 127 133 140 0.485237 -0.125269 0.865363 
-46.4001 35.8556 -76.7043 90 89 105 0.491288 -0.561711 0.66567 
-48.1467 34.4404 -75.7456 78 73 84 0.463144 0.109058 0.879548 
-46.2664 35.2627 -76.8582 66 63 78 0.445287 0.105352 0.889169 
-45.5274 35.0937 -77.1571 57 53 66 0.56043 0.0816996 0.824162 
-49.3219 35.7809 -75.0765 87 91 98 0.409129 -0.460876 0.787532 
-45.6931 36.5645 -77.2187 118 114 124 0.212882 0.107071 0.971194 
-45.7651 36.0765 -77.1116 75 71 84 0.607994 -0.0794291 0.789959 
-48.2368 36.7921 -75.6889 86 101 87 0.229407 0.475526 0.849263 
-47.9335 36.9027 -75.8538 142 155 137 0.164543 0.587223 0.792524 
-47.3024 36.8544 -76.1981 108 120 104 0.538096 0.296826 0.78889 
-48.1873 36.9743 -75.8688 72 82 72 0.213502 0.498172 0.840382 
-47.1086 34.6733 -76.2365 68 70 81 0.501566 0.104314 0.858807 
-47.15 35.7763 -76.2738 68 74 86 0.373802 0.105431 0.921497 
-47.3098 35.5466 -76.2124 58 59 77 0.548065 -0.206097 0.810647 
-45.4942 37.5308 -77.4288 92 88 98 0.396761 -0.1962 0.896709 
-48.2466 36.5072 -74.9202 85 107 94 0.410071 0.551701 0.72627 
-49.9392 36.2413 -74.9435 79 81 84 0.575716 0.154023 0.803012 
-49.4005 37.4139 -75.3998 126 123 133 0.47731 0.236368 0.846348 
-48.8334 37.7151 -75.7438 125 124 131 0.476088 0.0884766 0.874935 
-46.2801 35.0176 -76.861 99 95 110 0.452592 0.13937 0.880759 
-48.1051 35.6351 -75.0027 61 74 69 0.340168 -0.698239 0.62988 
-49.9894 35.1136 -74.7134 123 119 127 0.646462 -0.307916 0.69805 
-49.569 36.4571 -75.221 124 130 134 0.554478 0.147167 0.819082 
-47.5412 37.8922 -76.4326 114 107 116 0.501868 0.294199 0.813373 
-47.4588 38.0057 -76.4686 119 113 122 0.483563 0.331359 0.810166 
-47.5371 37.8062 -76.4037 160 153 161 0.501868 0.294199 0.813373 
-45.6156 36.8287 -77.2626 94 88 101 0.180183 0.137342 0.973997 
-45.5693 35.8352 -77.2272 129 124 135 0.583206 0.118992 0.803562 
-46.4686 38.2515 -77.0948 108 101 115 0.538054 0.317723 0.780737 
-48.9661 36.2325 -75.0141 116 119 120 0.285931 0.742782 0.605407 
-45.7564 36.8832 -77.2954 133 128 140 0.375582 0.350853 0.857811 
-47.2189 36.1452 -76.1503 39 49 53 0.281464 -0.5836 0.761701 
-49.1467 37.5568 -75.6054 149 151 156 0.534339 0.0288461 0.844778 
-47.2735 35.4968 -76.2818 38 41 57 0.360456 0.119238 0.925124 
-46.1926 36.8076 -77.0767 132 125 137 0.349763 0.574262 0.740196 
-47.3713 34.4937 -76.1737 95 91 105 0.570867 0.100229 0.814902 
-48.4033 35.45 -75.6745 34 34 46 0.542789 -0.162986 0.823903 
-47.8621 35.6293 -75.5066 37 45 46 0.350591 -0.709336 0.611497 
-47.1142 37.6395 -76.4631 155 148 157 0.364191 0.569967 0.736548 
-46.9195 36.2675 -76.4472 47 55 55 0.364682 0.119726 0.923403 
-45.8584 36.1913 -76.9606 135 127 141 0.493585 0.364964 0.789415 
-47.6066 35.9974 -73.6425 43 65 53 0.591826 -0.00686573 0.806037 
-49.7114 35.347 -74.916 126 125 131 0.320116 -0.211988 0.923356 
-47.7957 35.4441 -75.8568 28 28 42 0.344601 -0.63204 0.694101 
-46.4142 34.6534 -76.6461 123 120 134 0.432491 -0.347566 0.831955 
-48.3997 36.4987 -75.2332 127 138 128 0.166118 0.730004 0.662947 
-47.555 36.3197 -75.6992 37 54 47 0.717162 -0.343132 0.606579 
-49.1036 36.8245 -75.3941 168 167 173 0.438407 0.239542 0.866268 
-46.1838 36.8076 -77.0081 72 70 79 0.327359 -0.0556381 0.94326 
-48.3631 35.3609 -75.5903 51 47 56 0.703926 -0.464292 0.537513 
-47.241 37.8239 -76.4895 140 134 143 0.371319 0.120092 0.920706 
-45.5352 37.4114 -77.4889 132 126 138 0.444246 0.389718 0.8067 
-49.7309 35.8822 -74.7435 74 75 78 0.50737 0.454485 0.732133 
-47.1057 35.0899 -76.3429 51 51 70 0.0356309 -0.0745009 0.996584 
-46.1949 38.0887 -77.2492 105 102 113 0.271206 -0.274076 0.922675 
-45.7233 37.0233 -77.3005 97 92 105 0.468968 0.156323 0.869271 
-47.6107 37.4187 -76.4022 129 128 126 0.272017 -0.24101 0.931623 
-45.2089 36.0063 -77.4057 102 94 107 0.454049 0.292885 0.841462 
-45.8143 38.5175 -77.443 76 74 84 0.35637 0.116059 0.927109 
-47.9746 35.3913 -75.5462 43 46 53 0.751597 -0.212307 0.624523 
-45.0852 36.0891 -77.4681 90 82 94 0.454624 0.307769 0.83582 
-46.0305 34.7043 -76.8515 104 101 113 0.371251 0.132093 0.919089 
-47.6763 35.1074 -76.1341 36 33 50 0.727076 -0.17909 0.662787 
-45.1571 35.8903 -77.3932 152 144 156 0.454049 0.292885 0.841462 
-48.1726 35.2837 -75.8703 87 83 96 0.72247 -0.418272 0.550532 
-47.0973 35.3381 -76.3578 23 23 43 0.378658 0.0115523 0.925465 
-49.5044 36.3563 -75.1215 146 150 155 0.498866 0.318324 0.806104 
-46.7332 37.0452 -76.5742 87 83 88 0.338718 -0.485018 0.806243 
-45.2654 35.8516 -77.2802 163 156 168 0.471072 0.273376 0.838663 
-49.9723 35.725 -74.6182 137 136 138 0.324233 0.588781 0.740412 
-46.6659 35.4534 -76.4589 48 49 65 0.49497 0.101276 0.862988 
-47.3768 35.6818 -73.8476 43 61 53 0.570494 -0.0462563 0.819998 
-47.442 34.4358 -76.0119 132 128 141 0.267472 -0.344315 0.899948 
-48.7307 35.6051 -75.3967 111 124 117 0.502218 0.36657 0.783201 
-49.1332 36.6103 -75.4949 174 182 180 0.557886 0.147282 0.816745 
-48.7181 35.1684 -75.2704 124 138 133 0.381343 0.30234 0.873595 
-47.0005 36.9398 -76.4815 177 172 174 0.464028 0.405822 0.787392 
-49.0885 35.1752 -75.2435 131 128 140 0.307321 -0.00617111 0.951586 
-46.2219 34.8653 -76.7926 81 78 91 0.552776 0.304265 0.775797 
-47.8377 37.8457 -76.2972 80 81 84 0.312151 -0.0770582 0.946902 
-50.0029 35.6061 -74.7842 160 158 162 0.397137 0.057498 0.915956 
-46.9592 37.7575 -76.6426 60 55 63 0.524211 0.161867 0.836064 
-47.3667 37.3018 -76.3779 151 151 147 0.213569 -0.0753046 0.974021 
-47.6671 34.7511 -76.0053 170 166 181 0.684271 0.0985939 0.722532 
-47.0531 34.4734 -76.3518 115 114 126 0.449751 0.357576 0.818452 
-46.3789 38.436 -77.1657 178 176 187 0.505966 0.266216 0.820443 
-46.7444 34.5846 -76.5014 120 119 132 0.47005 0.312842 0.825338 
-47.0627 37.3782 -76.4478 130 125 129 0.370195 -0.385816 0.845045 
-45.249 35.6966 -77.2611 161 154 166 0.489354 0.0284666 0.87162 
-49.009 34.8706 -75.3214 85 84 95 0.60759 0.0236362 0.793899 
-49.0815 37.1632 -75.4892 133 139 139 0.242756 0.0229471 0.969816 
-49.1855 35.0205 -75.3052 138 136 148 0.623028 0.020907 0.78192 
-47.5505 36.2861 -76.0269 40 56 50 0.377104 0.105589 0.920133 
-46.8133 34.8513 -76.5043 58 62 74 0.507705 0.231612 0.829814 
-49.5074 35.4185 -75.0563 48 49 57 0.622236 -0.329802 0.709967 
-46.0322 38.2666 -77.2632 104 101 111 0.264263 -0.275691 0.924207 
-48.8738 37.4332 -75.6069 84 88 91 0.48437 0.119296 0.866692 
-45.2776 35.7791 -77.1201 33 29 38 0.553269 0.153603 0.818718 
-47.1369 34.933 -76.2559 45 44 63 -0.0265623 -0.062687 0.99768 
-46.594 35.0144 -76.7273 34 37 50 0.461214 0.228339 0.857405 
-46.7359 34.6878 -76.4823 159 160 173 0.489392 0.219696 0.843937 
-48.4227 37.7037 -75.9419 164 162 169 0.496178 0.0952548 0.86298 
-46.6747 34.9072 -76.6067 36 40 52 0.486755 0.222907 0.844619 
-49.0894 37.5088 -75.3912 111 115 119 0.316117 0.026448 0.948351 
-46.312 38.2689 -77.1643 146 144 155 0.321408 -0.114308 0.940016 
-49.8427 37.1942 -75.1712 112 111 118 0.567828 0.150527 0.809267 
-45.2745 36.7609 -77.4354 101 96 108 0.417819 -0.208171 0.884359 
-47.2106 36.4623 -76.2748 63 76 68 0.450074 0.33953 0.825926 
-46.897 35.5813 -76.2952 35 37 53 0.575006 0.00682905 0.818121 
-45.077 36.0144 -77.4352 97 94 102 0.388033 0.145336 0.910114 
-46.4148 35.017 -76.7912 49 50 63 0.456024 0.13954 0.87896 
-49.6728 34.076 -74.8785 116 111 122 0.507342 0.234512 0.829221 
-46.4626 35.107 -76.7188 23 24 37 0.46734 0.118621 0.876084 
-46.5313 37.8624 -76.9858 106 99 111 0.41413 0.472595 0.777914 
-46.6151 37.6417 -76.8907 128 121 132 0.410316 0.542144 0.733295 
-46.6928 35.8061 -76.4207 70 70 87 0.558441 -0.213838 0.801509 
-47.2401 35.5415 -76.2595 43 44 63 0.513864 0.110833 0.850682 
-49.5571 33.9594 -74.7849 187 182 190 0.348324 0.502422 0.791355 
-45.6412 36.0699 -77.1572 87 83 92 0.506211 -0.217382 0.834563 
-45.8449 37.6418 -77.319 121 115 127 0.443828 0.13272 0.886229 
-48.8605 35.2558 -74.912 132 141 140 0.564443 0.203444 0.800009 
-49.2592 33.7237 -74.8682 116 120 118 0.477476 -0.470867 0.741823 
-47.9242 35.8864 -75.7999 44 56 55 0.744929 -0.310521 0.590473 
-45.7647 37.5474 -77.3854 139 134 146 0.457116 0.325165 0.827836 
-45.4666 37.6527 -77.5643 76 71 83 0.453903 0.321973 0.830846 
-46.4379 35.7305 -76.7113 52 54 67 0.451299 -0.56454 0.691103 
-49.3559 34.3963 -75.0825 110 107 117 0.510173 0.12936 0.850288 
-47.3913 37.9461 -76.5188 160 154 163 0.457939 0.368585 0.808973 
-48.0043 34.7142 -75.8133 85 96 97 0.463064 0.076482 0.883019 
-46.9789 35.6301 -76.3505 41 42 60 0.541472 -0.169491 0.823457 
-47.2489 36.6178 -76.1449 92 108 92 0.671844 0.193059 0.71509 
-48.2068 35.4032 -75.3598 47 49 54 0.261673 -0.708896 0.654976 
-47.2442 37.6253 -76.4663 154 147 155 0.443099 0.388711 0.807816 
-47.33 34.8483 -76.1905 68 67 85 0.333366 0.168775 0.927568 
-47.3496 37.3857 -76.4233 157 151 155 0.454206 0.383587 0.804088 
-46.9764 35.3949 -76.4202 33 35 52 0.3727 -0.237173 0.897131 
-47.1872 37.4506 -76.4794 153 146 153 0.471714 0.344653 0.811603 
-48.6114 34.7963 -75.5257 99 97 108 0.652019 -0.0827731 0.753671 
-46.6166 34.9674 -76.5903 78 77 91 0.330275 0.114585 0.936904 
-46.3181 37.1471 -76.9361 92 86 96 0.347224 -0.182824 0.919789 
-47.059 36.9855 -76.4599 150 145 147 0.495574 0.271867 0.824921 
-46.7919 37.0916 -76.5925 129 122 129 0.485235 0.288645 0.825367 
-45.3334 36.3654 -77.3913 90 86 95 0.367875 0.122625 0.921754 
-49.0723 36.4387 -75.3187 165 172 172 0.0806969 -0.270271 0.959397 
-46.0491 38.495 -77.2991 78 71 86 0.500144 0.476882 0.7228 
-46.0721 37.0146 -77.0924 119 113 125 0.294199 0.501868 0.813373 
-46.8971 34.5223 -76.4186 104 100 115 0.468947 -0.221656 0.854961 
-49.4724 36.2339 -75.1383 161 158 167 0.465847 0.277032 0.840381 
-47.4597 34.5706 -76.2155 87 83 97 -0.0198238 -0.0511246 0.998496 
-48.668 34.4377 -75.496 86 83 92 0.373176 -0.606617 0.701966 
-46.459 38.061 -77.0159 109 107 118 0.541402 0.311426 0.78096 
-49.332 35.5457 -75.0292 80 81 89 0.416601 -0.461989 0.78295 
-47.193 36.6238 -76.315 124 136 125 0.488752 0.268426 0.830102 
-47.0985 34.6522 -76.3163 61 63 75 0.483774 0.199201 0.852221 
-45.1937 36.8383 -77.4096 110 104 116 0.19685 0.150532 0.968809 
-47.4703 36.9854 -76.1235 124 130 113 0.476311 0.414537 0.775427 
-45.3404 36.4284 -77.4373 141 132 146 0.48566 0.205992 0.84953 
-49.0514 36.7036 -75.436 178 179 182 0.498047 0.176918 0.84891 
-48.6629 34.2946 -75.3839 67 61 72 0.530609 0.130094 0.837573 
-46.7768 36.3025 -76.5916 66 68 77 0.537456 0.111547 0.835882 
-49.5432 37.4755 -75.382 141 139 146 0.245859 0.0636489 0.967214 
-45.929 38.4729 -77.3509 100 94 108 0.517722 0.441635 0.73275 
-49.4055 35.6037 -74.8179 93 94 102 0.615649 -0.347834 0.707098 
-47.928 37.8863 -76.2695 65 62 68 0.216308 -0.00584615 0.976308 
-48.1542 37.3101 -75.9486 120 128 123 0.54919 0.04891 0.834265 
-47.836 34.8311 -76.0055 96 106 110 0.509287 0.123332 0.851714 
-49.6591 34.4516 -74.9179 111 106 117 0.527995 0.185024 0.828847 
-49.5125 35.094 -74.8883 80 78 85 0.418305 -0.00651566 0.908283 
-48.7276 36.2065 -75.0109 69 81 76 -0.143163 -0.670604 0.72787 
-49.675 36.4262 -75.1758 166 174 173 0.333703 -0.698335 0.633222 
-46.8113 37.2783 -76.6824 145 141 149 0.578892 0.125206 0.805735 
-47.5209 37.1428 -76.1719 131 132 121 0.484165 0.353137 0.800549 
-50.1696 36.402 -74.6334 147 143 147 0.357826 0.707483 0.609449 
-49.5362 35.2156 -74.9169 93 91 99 0.628857 -0.250597 0.73603 
-45.6779 35.9145 -77.0826 129 126 135 0.442477 0.00393897 0.896771 
-49.4903 36.0386 -74.9958 99 103 110 0.407325 0.552445 0.727249 
-47.292 38.1348 -76.5879 124 119 131 0.478414 0.323679 0.816304 
-47.296 36.9893 -76.3472 116 124 114 0.513885 0.284444 0.809329 
-48.5139 35.13 -75.5378 49 45 57 0.668315 -0.0892062 0.73851 
-45.9612 37.2291 -77.3196 128 123 135 0.526629 -0.25011 0.812469 
-49.3113 36.6148 -75.1505 124 129 134 0.22633 -0.5435 0.808321 
-45.5761 36.8571 -77.4071 123 119 131 0.370572 -0.476449 0.797291 
-47.1239 37.6351 -76.4797 154 147 155 0.575891 0.131759 0.806839 
-46.3896 35.159 -76.951 69 65 79 0.468366 0.0852845 0.879409 
-47.7263 36.7491 -75.9066 86 108 89 0.470092 0.355357 0.80792 
-50.3257 36.7889 -74.9085 85 80 87 0.405636 0.673853 0.617561 
-46.5776 35.7141 -76.6208 37 36 53 0.593027 -0.207945 0.777867 
-45.4494 35.1239 -77.2483 119 113 126 0.574964 0.309103 0.757543 
-45.5431 34.8936 -77.1771 91 86 100 0.568336 0.326834 0.755098 
-45.6711 35.2325 -77.1833 104 99 112 0.513995 0.415465 0.750465 
-49.3605 37.4591 -75.3976 121 122 127 0.656277 0.0209897 0.754228 
-45.5457 35.1021 -77.1936 78 73 86 0.608989 0.239525 0.756148 
-46.6993 35.1702 -76.5556 46 46 61 0.345002 0.109589 0.932182 
-47.2073 38.1041 -76.6287 65 60 72 0.575939 0.160902 0.801502 
-47.718 35.8981 -74.7853 53 71 64 0.535448 -0.773425 0.339278 
-45.43 37.7276 -77.6591 51 45 57 0.603634 -0.205328 0.770367 
-46.4972 35.2506 -76.6699 46 44 60 0.456052 0.0878632 0.885605 
-46.4308 37.6252 -76.9956 77 70 82 0.571384 0.128451 0.810568 
-48.0204 35.1441 -75.9435 76 75 86 0.338605 0.106573 0.934874 
-47.7076 35.6045 -75.9316 37 42 52 0.335538 -0.338575 0.87908 
-48.999 36.79 -75.482 149 151 153 0.505347 0.283182 0.815127 
-49.0894 36.5632 -75.4035 189 189 193 0.544642 0.179536 0.819226 
-48.9898 34.6318 -75.3223 84 81 92 0.224824 -0.0178432 0.974236 
-48.2036 35.3103 -75.7805 35 32 46 0.551572 -0.179827 0.814513 
-47.0661 37.1071 -76.4888 131 125 129 0.455432 0.397497 0.796604 
-48.0885 35.1107 -75.8296 101 98 111 0.416155 0.0664221 0.906865 
-47.8534 36.8562 -75.5395 96 117 103 0.660777 -0.192534 0.725468 
-48.0972 36.447 -74.8564 71 85 75 -0.18969 0.937372 0.29215 
-45.583 38.4039 -77.5387 91 90 100 0.251274 -0.0132249 0.967826 
-49.3976 36.5226 -75.2609 112 119 121 0.434362 0.421444 0.796062 
-47.5322 34.5574 -76.0717 170 167 180 0.269928 -0.24449 0.931323 
-45.6133 38.0986 -77.5079 85 80 92 0.499058 0.122956 0.857801 
-49.6622 36.6338 -75.0335 202 199 208 0.532946 0.261003 0.804889 
-48.5951 35.5765 -75.4638 81 80 86 0.787204 -0.317756 0.528528 
-47.5237 34.9544 -76.1409 139 136 154 0.460335 0.224885 0.858789 
-49.7467 34.1308 -74.8179 85 80 90 0.48235 0.271419 0.832869 
-48.1547 37.3058 -76.0548 120 124 121 0.425457 0.214952 0.87908 
-48.3943 35.4965 -75.3425 65 69 70 0.693299 -0.466097 0.549627 
-47.0801 37.2057 -76.4394 123 118 122 0.519539 0.298458 0.800626 
-46.3605 38.4364 -77.1128 185 178 192 0.554923 -0.0519801 0.830276 
-48.0333 37.1618 -75.9511 117 128 116 0.526243 0.108132 0.843431 
-46.6914 38.1519 -76.8928 169 166 177 0.540817 0.111643 0.833699 
-47.1415 35.4411 -76.3493 53 55 73 0.364742 0.10792 0.924833 
-50.0556 36.1778 -74.6178 129 127 129 0.407432 0.569085 0.714242 
-49.1202 34.3153 -75.1601 91 87 98 0.448696 0.296543 0.843051 
-47.5668 35.4046 -76.1454 47 46 64 0.335103 0.0696489 0.939604 
-45.8522 37.2648 -77.3215 116 110 122 0.353109 0.412746 0.839616 
-45.7811 35.7748 -77.1056 59 55 68 0.506761 -0.129231 0.852345 
-49.6156 34.6182 -74.8947 136 134 142 0.384641 0.0656705 0.920727 
-47.2093 36.0764 -76.0193 39 48 53 0.570019 -0.128144 0.811577 
-50.3009 36.8689 -74.7594 86 84 88 0.40974 0.429022 0.805018 
-49.3297 35.448 -75.2175 73 72 80 0.285564 0.0814052 0.954896 
-49.5894 34.5332 -74.9145 127 124 132 0.559944 0.199871 0.804061 
-49.6558 35.3898 -74.7759 144 144 147 0.580395 0.135079 0.803053 
-47.5669 36.9859 -76.0763 128 142 123 0.471979 0.359984 0.804765 
-45.1443 34.9439 -77.4255 71 66 78 0.513775 0.126624 0.848529 
-49.2052 36.5343 -75.3748 152 158 159 0.522907 0.123808 0.843351 
-46.19 35.285 -76.8998 57 54 67 0.476988 0.437649 0.762198 
-49.4322 36.4947 -75.2488 114 122 122 0.52841 0.123732 0.839925 
-46.2479 35.4314 -76.9013 72 67 82 0.458394 0.464966 0.757418 
-46.9856 36.7209 -76.4501 136 140 138 0.648742 0.152734 0.745524 
-45.8097 34.9221 -76.9845 117 113 126 0.492495 0.227188 0.840139 
-45.6383 34.9119 -77.1209 95 92 105 0.338302 0.0373032 0.940298 
-47.5632 35.3186 -75.9572 44 56 62 0.581412 -0.0348569 0.812862 
-46.4916 35.1691 -76.7212 44 43 57 0.327436 0.100236 0.939542 
-45.5769 36.1537 -77.2628 99 91 104 0.50819 0.113731 0.853702 
-45.7174 36.106 -77.1564 96 88 102 0.50167 0.0952178 0.859803 
-46.3912 35.5368 -76.7932 43 44 57 0.455221 -0.551934 0.698672 
-49.5768 35.4472 -74.7946 112 112 118 0.426405 -0.297098 0.854349 
-46.0364 38.0576 -77.2738 81 78 90 0.535992 0.250129 0.806318 
-48.588 37.466 -75.736 153 156 159 0.406768 0.270675 0.872511 
-49.0497 34.4627 -75.2568 93 89 101 0.38628 -0.30994 0.868749 
-48.1239 37.1722 -76.0149 117 117 115 0.246819 0.437612 0.864625 
-48.3606 37.2637 -75.9863 127 123 128 0.225682 0.471055 0.852746 
-48.3655 37.8208 -75.8556 131 132 138 0.383957 0.2929 0.875664 
-47.6435 34.413 -75.9885 143 140 153 0.406974 -0.511578 0.756743 
-46.4654 35.4116 -76.6788 37 38 51 0.440847 -0.334165 0.833059 
-48.4352 36.1844 -74.2015 118 130 125 -0.215188 0.939884 0.265167 
-48.4033 37.4569 -75.9365 170 164 171 0.330623 0.24906 0.910306 
-47.1745 37.4486 -76.3676 152 145 151 0.53547 0.243677 0.808637 
-50.046 36.9776 -74.9514 146 150 153 0.382977 -0.532908 0.754545 
-48.9199 35.5644 -75.1256 138 147 145 0.214873 -0.0372127 0.975933 
-48.5647 37.3911 -75.8772 104 99 106 0.272547 0.386987 0.880885 
-49.4348 34.313 -75.0153 56 51 61 0.519181 0.324288 0.790752 
-49.5787 35.5662 -75.0104 78 78 84 0.153227 -0.542989 0.825642 
-49.769 35.3423 -74.6968 139 139 141 0.381231 -0.548122 0.744464 
-48.4629 37.6316 -75.9285 166 160 169 0.431791 0.157409 0.888132 
-49.3685 34.993 -75.0665 126 125 135 0.571072 0.052172 0.819241 
-46.2104 37.9844 -77.0975 90 84 96 0.564473 0.0785975 0.821701 
-48.3155 37.682 -76.0224 175 168 177 0.428629 0.13813 0.892859 
-46.9664 35.718 -76.3338 36 38 55 0.521355 0.0601026 0.851221 
-48.5829 33.9716 -75.4488 100 95 106 0.503557 -0.0397906 0.863045 
-47.3167 35.9427 -73.8104 76 98 86 0.600087 -0.197983 0.775048 
-48.0021 36.412 -75.4293 49 70 58 0.339124 0.446382 0.828093 
-47.4356 37.3589 -76.428 153 151 150 0.280631 -0.0361702 0.959134 
-47.5673 38.0225 -76.3806 147 143 153 0.502432 0.251989 0.827081 
-48.4453 37.5638 -75.9284 164 158 167 0.467099 0.0911754 0.879492 
-47.638 36.0985 -75.489 33 46 44 0.724161 0.117472 0.679552 
-48.7231 34.5383 -75.4343 142 138 148 0.478762 0.0565684 0.87612 
-45.7599 37.4245 -77.3472 107 103 115 0.441013 -0.0361925 0.896771 
-45.5595 36.6857 -77.3048 131 126 137 0.200916 0.054139 0.978111 
-48.344 37.7997 -75.9819 180 174 183 0.467325 0.0823051 0.880246 
-46.3247 37.3338 -77.1291 101 96 107 0.364924 -0.584205 0.724938 
-47.4114 34.2652 -76.0536 154 150 164 0.277119 -0.291628 0.91551 
-48.4957 37.5979 -75.8764 148 143 151 0.489321 0.0978643 0.866595 
-46.5387 38.1964 -77.0571 90 87 98 0.512112 0.33024 0.792895 
-46.0057 37.2985 -77.2211 117 113 125 0.408652 0.0833704 0.908875 
-50.0186 36.1295 -74.6014 105 102 105 0.526115 0.492711 0.693136 
-45.7562 36.3343 -77.0607 93 85 99 0.370295 0.502889 0.781015 
-47.1214 37.2834 -76.4717 147 140 146 0.456682 0.376562 0.806004 
-47.4607 35.33 -76.3027 80 79 98 0.502994 0.214266 0.83731 
-44.9189 35.6725 -77.5592 88 83 95 0.512598 -0.227991 0.827807 
-46.0105 36.218 -76.8639 73 71 84 0.475394 -0.143927 0.867921 
-49.0435 37.0457 -75.4292 128 128 134 0.471618 0.232018 0.850732 
-47.0983 35.314 -76.2963 47 47 66 0.548903 0.130971 0.825562 
-49.6292 33.7526 -74.7202 101 95 104 0.33131 0.5705 0.751508 
-47.9897 35.114 -76.0231 119 115 130 0.75535 -0.225826 0.615182 
-48.5236 35.7827 -75.3355 56 58 61 -0.0295323 -0.648304 0.760808 
-47.967 36.4546 -74.6233 69 86 74 -0.213013 0.944128 0.251493 
-49.8941 35.4719 -74.7291 147 145 152 0.471132 -0.0310488 0.881516 
-45.9802 37.7897 -77.2475 97 94 106 0.566363 0.176705 0.80499 
-49.0292 36.153 -75.3818 80 85 87 0.258418 -0.559122 0.787783 
-48.7109 34.3438 -75.4031 78 75 83 0.406108 -0.547506 0.731652 
-48.6668 36.9881 -75.573 117 135 124 0.292206 0.522812 0.800802 
-48.8597 35.8874 -75.2764 118 122 121 0.363335 -0.276613 0.889648 
-47.1555 35.7537 -76.2112 63 67 82 0.553417 -0.258679 0.791716 
-45.8387 35.532 -76.7898 53 52 60 0.556687 0.153723 0.816375 
-45.5011 38.3013 -77.5777 99 95 106 0.164156 0.0264026 0.986081 
-48.6873 36.8783 -75.4074 99 116 107 0.11975 -0.235636 0.964435 
-45.4244 37.8058 -77.5562 83 78 91 0.554986 0.172963 0.813679 
-48.5778 35.5976 -74.7779 72 79 81 0.114097 -0.689027 0.715699 
-45.8984 34.7569 -76.9685 126 123 135 0.433594 0.132211 0.891356 
-47.0591 37.4931 -76.4652 163 156 164 0.558713 0.170174 0.811715 
-46.0068 35.3469 -76.9567 82 78 91 0.45012 0.14237 0.881545 
-47.5542 37.4679 -76.3354 100 97 97 0.230717 -0.0629227 0.970984 
-49.0594 34.756 -75.2969 65 62 73 0.405989 -0.355828 0.84176 
-45.591 36.3183 -77.2768 96 89 102 0.493998 -0.0567337 0.86761 
-48.1579 34.6653 -75.7779 118 113 126 0.454123 0.0791591 0.887415 
-47.7002 35.2833 -75.7112 60 77 73 0.582736 -0.151302 0.798453 
-46.0408 38.572 -77.4404 66 64 76 0.544855 0.226894 0.80725 
-49.1812 36.0409 -75.2202 145 153 153 0.385659 -0.472795 0.792295 
-47.544 35.5252 -76.1031 41 42 59 0.725584 -0.0617824 0.685354 
-46.0839 35.3916 -76.9391 63 60 73 0.391242 -0.0274786 0.919877 
-48.8446 35.3607 -74.9912 117 128 125 0.102777 -0.0621183 0.992763 
-47.7719 35.8134 -75.4063 57 77 66 0.543994 0.149709 0.825626 
-45.5536 37.3902 -77.428 130 128 136 0.396986 -0.193403 0.897217 
-45.0254 36.3798 -77.6026 135 127 139 0.397911 0.372747 0.838288 
-45.1546 36.7204 -77.6106 116 107 120 0.426137 0.33248 0.841347 
-45.4781 35.8776 -77.2726 150 145 158 0.50356 -0.119758 0.85562 
-46.8628 35.9041 -76.3778 43 49 60 0.376188 0.117128 0.91911 
-49.7309 37.3887 -75.3006 159 157 165 0.238884 0.0606494 0.969152 
-48.399 36.9438 -75.6886 69 82 72 0.262812 0.78214 0.564966 
-47.2735 34.5846 -76.2862 94 96 107 0.461824 0.221134 0.858963 
-45.8005 37.9968 -77.3146 117 115 124 0.232674 -0.36145 0.902893 
-45.5149 35.6791 -77.2314 136 131 144 0.508521 -0.17746 0.842564 
-47.3032 35.8805 -76.1465 37 43 55 0.551699 -0.265633 0.790612 
-46.804 35.9623 -76.5302 61 63 78 0.491608 0.0949215 0.865628 
-48.9948 35.3994 -75.3166 124 127 130 0.634793 -0.0294275 0.772122 
-46.2481 35.0948 -76.7991 123 122 135 0.564662 0.128265 0.815295 
-48.7797 35.858 -75.2868 71 74 78 -0.0125496 -0.695808 0.718118 
-49.2572 34.0669 -75.0158 80 77 84 0.343719 0.547045 0.763282 
-49.3427 33.8442 -74.9252 89 84 91 0.344802 0.552006 0.759211 
-46.7638 37.217 -76.655 146 138 147 0.483652 0.292696 0.82487 
-48.7939 35.6819 -75.1994 109 112 114 0.721125 -0.367921 0.587038 
-46.914 37.163 -76.5695 180 173 180 0.507478 0.287519 0.81228 
-49.6677 34.9696 -74.9326 133 129 139 0.638083 -0.341072 0.690304 
-48.5687 34.7271 -75.4447 99 96 106 0.217998 0.0250161 0.975629 
-47.3962 35.4755 -76.257 58 59 77 0.525791 0.152553 0.836822 
-50.3046 36.5265 -74.7259 87 87 88 0.597606 0.122472 0.792381 
-50.1538 36.4663 -75.0484 149 149 153 0.392399 -0.232478 0.889931 
-45.5412 35.5924 -77.1772 113 106 119 0.535888 0.162707 0.828462 
-44.9141 35.8198 -77.4559 133 125 137 0.463319 0.29796 0.834599 
-47.004 35.9652 -76.3386 24 31 39 0.367925 0.110788 0.923232 
-45.0077 35.5942 -77.3831 96 89 100 0.510173 0.12936 0.850288 
-48.2029 35.255 -75.7555 45 42 53 0.372735 -0.532247 0.76012 
-45.42 36.1294 -77.2727 124 117 130 0.508313 0.184432 0.841191 
-48.4257 34.2402 -75.5603 158 152 163 0.622544 -0.079443 0.778542 
-45.1971 36.5569 -77.5817 106 100 113 0.473077 0.0707535 0.878175 
-46.4925 34.8082 -76.6671 44 40 55 0.324231 0.100071 0.94067 
-47.568 36.4738 -73.9289 61 87 70 0.468877 0.413715 0.780381 
-47.0524 37.8877 -76.5882 125 118 129 0.446988 0.440486 0.778572 
-47.1281 37.9684 -76.5893 162 155 166 0.447627 0.437861 0.779685 
-46.6978 34.7374 -76.4055 154 146 166 0.255921 -0.0330616 0.966132 
-44.9972 35.7914 -77.4145 138 131 142 0.519255 0.17508 0.836494 
-46.9521 36.7851 -76.5692 91 93 93 0.618608 -0.0208519 0.785423 
-46.191 36.1257 -76.7598 93 92 104 0.505061 -0.234876 0.83051 
-45.4253 35.7032 -77.2847 151 147 159 0.488383 -0.0920142 0.867765 
-49.9386 36.9627 -75.1143 146 146 152 0.586932 0.125666 0.799824 
-46.9704 34.5955 -76.3779 184 179 195 0.544338 0.137191 0.827571 
-48.1863 34.5805 -75.4824 110 127 119 0.441045 0.157619 0.883536 
-47.4504 36.8002 -76.244 109 125 107 0.609255 0.0553868 0.791038 
-48.2506 35.5861 -75.0413 60 69 66 0.383255 -0.603668 0.699071 
-45.6149 38.3139 -77.5185 149 142 156 0.329301 0.631026 0.702401 
-46.511 38.2265 -76.9972 112 115 123 0.346727 -0.244318 0.905587 
-46.2907 38.1429 -77.151 110 104 118 0.498888 0.354515 0.790841 
-46.8439 34.8687 -76.2998 114 118 129 0.569077 -0.0788394 0.818496 
-47.3906 34.5763 -76.0536 102 97 112 0.398053 -0.42363 0.81369 
-45.7634 38.664 -77.5526 82 79 91 0.540279 0.239952 0.806549 
-46.0934 34.9177 -76.9278 65 62 75 0.539975 0.226143 0.810732 
-49.0297 35.5686 -75.2885 86 91 92 0.26243 0.0722632 0.962242 
-46.6656 35.6566 -76.5328 69 71 87 0.447295 -0.278214 0.850014 
-46.3133 37.0531 -77.1547 127 122 134 0.368995 -0.461643 0.806677 
-49.363 37.567 -75.4836 150 151 158 0.210696 0.046955 0.976423 
-47.8391 35.1024 -75.74 77 74 89 0.740619 -0.466804 0.483299 
-46.2708 38.3022 -77.1875 131 129 140 0.508695 0.262904 0.819824 
-46.3727 36.9538 -76.9102 135 128 138 0.549554 0.223208 0.805089 
-47.3991 37.7289 -76.4925 120 115 123 0.635056 -0.199324 0.746307 
-46.2775 36.9663 -76.9827 122 116 127 0.409265 0.48753 0.771244 
-45.5583 36.121 -77.2402 110 102 115 0.466657 0.280614 0.838742 
-47.4601 37.8873 -76.4949 73 68 77 0.641255 -0.20242 0.740147 
-49.4857 34.4944 -74.9631 173 169 178 0.547575 0.121197 0.827933 
-47.3332 34.7965 -76.225 75 72 90 0.504134 0.141742 0.851914 
-47.021 35.312 -76.3994 37 37 56 0.114933 -0.139129 0.983582 
-49.9331 35.8324 -74.8518 118 117 122 0.520377 0.218222 0.825583 
-46.3156 38.1184 -77.0642 80 75 88 0.539238 0.307 0.784202 
-46.2871 38.0433 -77.202 77 76 87 0.161564 0.0240627 0.986569 
-48.0808 37.2192 -75.9214 122 132 123 0.414837 0.0895828 0.905475 
-45.0951 35.9193 -77.4438 156 150 161 0.511735 -0.0864704 0.854781 
-48.2117 36.1306 -75.2627 67 88 76 0.215817 0.00349974 0.976427 
-49.9333 35.7688 -74.5499 136 136 137 0.354468 0.619093 0.700768 
-48.3363 34.9949 -75.7065 98 95 107 0.517443 0.0989019 0.849983 
-49.0128 36.5984 -75.2371 106 122 114 0.561808 -0.448446 0.695175 
-46.1311 35.3163 -76.904 81 77 92 0.463528 0.127721 0.876829 
-45.3361 35.5316 -77.3343 26 24 32 0.338928 0.0190409 0.94062 
-46.7575 35.4942 -76.4805 67 67 85 0.570316 -0.15418 0.806826 
-45.9992 36.8672 -77.1417 105 101 111 0.343695 -0.0896014 0.934797 
-44.81 35.2467 -77.6871 78 71 84 0.447601 -0.193517 0.873043 
-47.9458 37.1728 -76.0305 145 146 139 0.192751 0.550935 0.811984 
-49.0867 34.1417 -75.1654 123 119 130 0.457714 0.412428 0.787656 
-45.9581 37.6815 -77.2503 89 83 95 0.457097 0.307332 0.834631 
-49.3216 36.4776 -75.1833 141 155 150 0.150158 -0.19636 0.968966 
-49.9316 37.2874 -75.0547 46 44 50 0.40643 -0.461485 0.788572 
-45.3069 36.4079 -77.3779 87 83 95 0.572538 0.160791 0.803957 
-47.4136 37.1822 -76.2819 132 129 125 0.45984 0.379728 0.802717 
-47.8005 34.4608 -75.8922 150 159 161 0.538352 0.192593 0.820418 
-49.1433 37.1181 -75.4109 121 125 127 0.433384 0.218926 0.874214 
-45.3124 35.1645 -77.3687 97 91 103 0.574964 0.309103 0.757543 
-45.3061 36.5812 -77.4868 100 93 106 0.401745 -0.0520534 0.914271 
-45.1045 36.3026 -77.4836 106 100 113 0.404637 0.277335 0.871409 
-44.8181 35.7205 -77.4756 92 90 96 0.455094 -0.155575 0.876747 
-48.4712 36.7158 -75.5602 69 89 78 0.57815 0.167558 0.798541 
-46.0342 36.9749 -77.1307 88 86 95 0.346027 -0.0982879 0.933062 
-50.3181 36.984 -74.5969 131 130 135 0.345386 -0.806962 0.479084 
-47.2886 38.0573 -76.428 113 109 119 0.304017 -0.336964 0.891083 
-46.258 37.3703 -77.2017 93 87 98 0.371814 -0.530932 0.761489 
-49.0403 37.4359 -75.5342 143 147 150 0.469801 0.263397 0.842561 
-46.1828 35.8572 -76.8277 160 153 168 0.589627 0.0464384 0.80634 
-48.3521 37.2164 -75.8094 106 119 113 0.476195 0.125163 0.870386 
-47.0457 38.1694 -76.6467 122 118 130 0.514723 0.308834 0.799801 
-49.7056 35.0914 -74.9246 105 101 112 0.57252 -0.0405943 0.818885 
-46.7851 35.4777 -76.4817 69 70 87 0.637335 -0.142463 0.757304 
-49.1947 35.5435 -74.726 93 93 98 0.0230212 0.104143 0.994296 
-49.4742 36.7393 -75.1199 147 154 154 0.507777 0.139017 0.850198 
-46.1311 35.8217 -76.8411 139 132 147 0.605456 -0.0124125 0.795782 
-46.2128 37.9943 -77.1369 80 78 89 0.535992 0.250129 0.806318 
-48.1251 34.9333 -75.7607 109 106 117 0.22345 0.0549466 0.973166 
-45.455 35.2264 -77.3567 132 126 139 0.530007 -0.0573358 0.846053 
-45.7721 35.8075 -76.9921 100 93 106 0.453013 0.108667 0.884857 
-45.5948 35.6677 -77.2054 98 95 103 0.369548 -0.0378688 0.92844 
-47.8635 35.6292 -75.6536 43 50 54 0.761574 -0.386495 0.520218 
-49.1668 34.4025 -75.1136 105 102 113 0.389866 0.0354424 0.920189 
-47.3734 35.688 -76.1569 29 33 46 0.324854 -0.447263 0.833322 
-47.876 35.4117 -75.1928 47 50 56 0.483817 -0.773781 0.408882 
-47.7022 35.4295 -76.1361 41 44 57 0.349918 0.113009 0.929939 
-45.2083 36.9784 -77.5445 184 177 190 0.466962 0.0973424 0.878904 
-49.5005 36.4748 -75.3089 75 83 88 0.492908 -0.361252 0.791542 
-45.0758 35.7893 -77.4327 108 103 115 0.442343 0.0962828 0.891663 
-45.9388 35.3061 -76.9924 75 72 85 0.37726 0.621079 0.686976 
-48.1718 34.7853 -75.7205 141 138 149 0.230505 0.0451253 0.972024 
-45.9212 38.2383 -77.3173 134 131 142 0.259798 -0.245755 0.933868 
-47.1551 34.6956 -76.3067 45 41 57 0.545446 0.140426 0.826299 
-45.2489 37.2344 -77.5192 80 76 87 0.528597 0.0931134 0.84375 
-47.5681 35.1287 -76.0974 53 52 70 0.509287 0.123332 0.851714 
-47.807 35.2324 -74.7248 46 46 52 0.116225 -0.992896 0.0254589 
-44.9431 35.1886 -77.4556 57 52 63 0.366788 0.00380749 0.930297 
-46.4102 34.9711 -76.7902 70 66 81 0.473728 0.222486 0.852105 
-49.4699 35.8947 -74.9962 115 125 124 0.544394 0.11822 0.830457 
-46.351 37.806 -77.0829 67 62 72 0.547809 0.182603 0.816432 
-47.4953 36.3849 -76.1173 46 61 54 0.579103 0.122304 0.806028 
-47.3803 36.912 -76.1169 124 132 115 0.387642 0.501178 0.773663 
-46.6258 37.5867 -76.8481 173 168 177 0.238767 -0.233247 0.942648 
-45.9983 37.2733 -77.2022 114 108 120 0.508355 0.110888 0.853979 
-45.0936 36.2632 -77.5889 103 96 107 0.49589 0.213824 0.841648 
-46.0888 35.6731 -76.9466 128 125 140 0.516512 -0.181153 0.836899 
-46.1864 37.6024 -77.1998 113 109 120 0.758669 -0.267672 0.593947 
-48.8412 35.5962 -75.2146 135 146 141 0.309837 0.122057 0.942923 
-47.2226 34.3665 -76.2544 64 63 75 0.449239 0.360343 0.817519 
-47.4889 38.1043 -76.3971 96 91 101 0.264644 -0.193341 0.944766 
-47.5265 36.5132 -75.8511 38 57 45 0.658339 0.152856 0.737037 
-49.9676 34.943 -74.7463 163 158 168 0.524507 -0.184855 0.831096 
-46.7755 37.2803 -76.6581 154 147 155 0.530251 0.343294 0.775231 
-49.9547 35.3746 -74.5769 80 78 85 0.61276 -0.3397 0.713533 
-49.1396 35.2816 -75.2537 112 110 122 0.307321 -0.00617111 0.951586 
-47.3224 36.2754 -76.2037 32 46 41 0.236081 -0.431562 0.870643 
-45.0346 35.4815 -77.4406 88 81 93 0.459388 0.268872 0.846564 
-48.7623 37.2859 -75.6872 143 153 150 0.722485 0.0709455 0.687737 
-46.8242 35.3762 -76.3903 54 54 72 0.344493 -0.204409 0.916265 
-46.3906 38.2557 -77.0975 108 106 118 0.548034 0.293873 0.783133 
-46.5785 35.7045 -76.5943 49 50 65 0.454624 -0.307769 0.83582 
-48.3567 34.4365 -75.6529 110 105 116 0.622685 -0.0765714 0.778717 
-46.9065 36.3815 -76.4858 60 65 67 0.380905 0.0881096 0.920407 
-49.5519 36.624 -75.0891 190 195 198 0.276803 -0.561516 0.779795 
-49.4781 34.9429 -74.9692 109 106 116 0.265113 0.0232127 0.963938 
-49.7648 37.4756 -75.3125 154 150 159 0.512849 0.0894999 0.853801 
-45.3547 36.6592 -77.4673 65 60 72 0.472862 0.0855922 0.87697 
-49.0355 36.8392 -75.5198 185 185 189 0.408585 0.274921 0.870331 
-47.7427 34.6726 -75.9534 126 123 136 0.455863 0.0939778 0.885075 
-45.3991 35.5735 -77.2621 135 128 141 0.464504 0.256014 0.847758 
-49.1896 35.7702 -74.8908 97 107 106 0.656706 -0.398655 0.640165 
-47.7498 35.2474 -75.9495 49 63 65 0.519315 -0.126556 0.84516 
-45.6963 37.9809 -77.3626 108 102 115 0.54838 0.169772 0.818814 
-48.9166 37.1981 -75.5164 149 154 155 0.461758 0.290736 0.838005 
-49.061 36.1932 -75.2895 78 79 82 0.484455 0.296317 0.823103 
-46.3876 37.8152 -77.0005 78 73 84 0.55127 0.18275 0.814067 
-45.6328 38.2174 -77.4644 130 124 137 0.559607 0.385653 0.733561 
-47.8724 35.5134 -75.5515 37 41 49 0.773488 -0.3601 0.521579 
-48.0233 35.7101 -74.4511 68 84 77 0.0677927 -0.719757 0.690909 
-47.3244 34.7602 -76.2626 38 41 54 0.489199 0.206216 0.847443 
-47.2373 34.9821 -76.3488 61 65 79 0.502994 0.214266 0.83731 
-49.5659 34.611 -74.9736 159 155 166 0.55088 0.11192 0.827046 
-47.8902 36.8491 -75.7985 140 155 137 0.163939 0.579051 0.798639 
-47.0115 35.0814 -76.4611 55 53 73 0.542127 0.111914 0.832811 
-46.3252 37.7402 -77.0884 101 94 106 0.441797 0.481214 0.757132 
-49.4706 36.2897 -75.1976 125 131 136 0.399376 0.544006 0.737941 
-46.2784 37.5559 -77.1273 101 94 106 0.440147 0.436898 0.784468 
-46.4559 37.2857 -76.9225 99 93 103 0.324022 -0.482082 0.814007 
-46.8314 36.775 -76.584 113 114 116 0.659551 0.130116 0.740312 
-46.6547 35.4908 -76.5464 54 54 72 0.524631 0.0601576 0.849202 
-46.6467 37.1779 -76.9265 120 116 125 0.373115 -0.549082 0.74786 
-49.6398 37.138 -75.3286 138 137 144 0.475994 0.249476 0.843321 
-48.3135 35.2244 -75.7216 51 48 58 0.372735 -0.532247 0.76012 
-46.086 34.7539 -76.833 91 88 101 0.471004 0.212177 0.856234 
-46.0653 37.5646 -77.1869 119 112 124 0.559842 0.156756 0.813637 
-49.2217 35.6768 -75.0413 101 105 113 0.555428 0.102964 0.825166 
-49.504 37.1356 -75.3861 158 157 163 0.479078 0.243365 0.843361 
-49.4739 37.4188 -75.4164 109 109 116 0.526566 0.0458488 0.848897 
-49.2988 34.7568 -75.0251 87 86 98 0.327985 0.0692558 0.942141 
-47.2278 35.393 -76.2859 43 46 63 0.360456 0.119238 0.925124 
-47.0076 36.562 -76.3529 106 106 104 0.448776 0.419613 0.789003 
-48.9015 34.4366 -75.2548 108 105 116 0.640135 0.0381538 0.767314 
-48.1009 35.0488 -75.8775 91 86 100 0.477853 0.109835 0.871546 
-49.3816 35.5875 -75.1009 83 84 93 0.41308 -0.497981 0.762483 
-45.7793 36.3682 -77.1278 67 59 73 0.533648 0.292952 0.793346 
-45.9026 38.618 -77.4974 65 62 74 0.536406 0.247213 0.806941 
-44.8625 35.5274 -77.6541 78 72 84 0.375419 0.135374 0.916916 
-49.0459 36.9317 -75.4847 157 166 162 0.523654 0.146033 0.839322 
-47.2137 36.7676 -76.2157 132 135 124 0.431757 0.457825 0.777163 
-49.6484 37.268 -75.3852 132 131 137 0.579051 -0.163939 0.798639 
-48.6334 37.3188 -75.5313 131 141 138 0.491608 0.0949215 0.865628 
-45.8053 38.6781 -77.4821 93 87 101 0.519328 0.427003 0.740248 
-47.9171 35.837 -75.7365 38 48 51 0.638402 -0.189213 0.746084 
-45.625 35.4187 -77.1919 72 70 77 0.457963 -0.390474 0.798624 
-48.1006 36.7804 -75.6787 92 114 98 0.412625 0.233871 0.880366 
-47.3577 37.0065 -76.2976 115 116 106 0.441898 0.381276 0.812007 
-48.7058 35.7284 -75.3336 111 117 114 0.724836 -0.18621 0.663279 
-48.3893 35.809 -75.2217 49 55 54 -0.0353276 -0.693833 0.719269 
-45.574 35.8722 -77.1672 161 153 166 0.474483 0.253365 0.843014 
-46.7265 36.3518 -76.5123 102 105 107 0.375344 0.126038 0.918276 
-47.85 34.4378 -75.9204 185 181 194 0.478191 0.0945096 0.873156 
-48.7699 37.5469 -75.7498 103 105 109 0.489141 0.106955 0.865622 
-45.9371 34.7155 -76.9782 111 108 121 0.612394 0.145238 0.777097 
-45.3845 35.7274 -77.2461 86 83 91 0.383807 -0.117775 0.915872 
-46.9149 35.1959 -76.4415 73 73 91 0.518269 0.129932 0.84529 
-46.4873 35.3388 -76.7164 52 51 66 0.547782 0.347413 0.761078 
-48.2914 35.5678 -75.3374 63 66 69 0.730516 -0.297023 0.614918 
-46.4873 36.7263 -76.7782 145 139 148 0.532019 0.111622 0.839343 
-49.8593 34.3847 -74.8365 74 69 79 0.502403 0.238142 0.831192 
-46.3244 36.0935 -76.7644 93 91 105 0.441303 0.267225 0.856646 
-46.2147 36.3942 -76.8752 222 221 231 0.371195 0.122812 0.920398 
-47.9889 37.914 -76.2851 64 62 67 0.338538 -0.22041 0.914774 
-49.5886 35.8884 -74.874 91 90 96 0.457823 0.362111 0.811957 
-45.4441 36.4983 -77.4168 72 65 77 0.384934 -0.0274021 0.922537 
-47.1632 35.4816 -76.2932 62 63 82 0.488583 0.229832 0.841703 
-46.1384 35.6555 -76.9089 122 115 130 0.57753 0.0788193 0.812555 
-49.364 34.261 -74.9978 109 110 118 0.399092 0.0946301 0.912015 
-48.4364 35.2368 -75.707 65 65 71 0.538614 0.0933597 0.837365 
-47.3967 35.7715 -76.1163 38 43 56 0.53314 0.114763 0.838207 
-47.6976 35.2276 -76.1004 49 46 64 0.556845 0.072632 0.827435 
-48.2333 34.4718 -75.7061 81 77 89 0.527208 0.129977 0.839736 
-49.184 34.0949 -75.0437 115 113 119 0.539611 0.136741 0.830736 
-49.921 36.2993 -74.934 94 90 97 0.453796 0.4901 0.744225 
-45.2449 35.9673 -77.2294 77 72 81 0.553269 0.153603 0.818718 
-45.7771 36.5944 -77.248 111 106 119 0.50167 0.0952178 0.859803 
-49.6365 34.8806 -74.9049 124 121 129 0.384641 0.0656705 0.920727 
-47.6703 36.7637 -75.8617 107 132 109 0.451126 0.39333 0.80111 
-46.3101 35.9431 -76.705 76 71 86 0.633516 -0.0237743 0.773365 
-46.5479 36.0544 -76.678 41 41 55 0.518586 0.161965 0.839545 
-49.8955 35.9398 -74.69 102 100 104 0.416975 0.532343 0.736711 
-46.3161 37.4138 -77.0879 68 63 75 0.374991 -0.514597 0.771085 
-45.1904 35.0572 -77.2334 79 73 86 0.504752 -0.0398851 0.862342 
-45.4161 37.5865 -77.5227 59 56 66 0.34197 -0.163308 0.925412 
-50.3643 37.1653 -74.7524 144 142 149 0.407884 0.288727 0.86618 
-48.3597 34.2324 -75.5474 157 152 162 0.457179 -0.139894 0.878303 
-47.6169 37.9226 -76.3699 112 107 115 0.327469 -0.186924 0.926188 
-48.0923 37.4587 -75.8727 117 122 121 0.544957 0.285905 0.788213 
-46.7942 38.0417 -76.7915 51 48 58 0.539001 0.222664 0.812341 
-48.8929 37.6058 -75.6106 152 150 158 0.424444 0.533446 0.73163 
-49.8315 36.3275 -75.0076 70 76 77 0.335367 -0.578386 0.743639 
-47.2491 36.2113 -75.9639 42 54 54 0.694773 -0.315806 0.646187 
-45.0944 36.092 -77.4177 101 98 106 0.383697 0.13255 0.913897 
-49.6391 34.4172 -74.8976 90 86 97 0.544174 0.111737 0.831498 
-45.5984 35.7702 -76.9562 104 101 111 0.553269 0.153603 0.818718 
-45.5113 38.2646 -77.5511 99 93 106 0.561211 0.381231 0.734646 
-45.5545 38.0933 -77.4608 89 83 96 0.510503 0.334468 0.79216 
-49.6632 33.8309 -74.7196 111 105 115 0.348101 0.558581 0.75287 
-48.3638 34.0383 -75.5633 124 119 131 0.557639 0.150191 0.816383 
-48.9016 35.0945 -75.3787 158 156 167 0.621156 -0.043863 0.782458 
-49.2373 34.1924 -75.0643 158 160 166 0.359628 -0.362715 0.859712 
-47.5499 36.0489 -73.7114 102 127 111 0.653326 -0.376855 0.656617 
-45.6924 36.0973 -77.0645 77 70 83 0.41712 0.436446 0.797199 
-44.9311 35.4866 -77.4804 102 98 110 0.434765 0.0279207 0.900111 
-45.8225 38.6922 -77.5145 90 86 99 0.358323 0.149185 0.921601 
-46.3724 37.326 -77.0568 153 147 157 0.593889 0.145106 0.791353 
-49.2601 34.6009 -75.0855 110 108 118 0.386037 0.0627811 0.920344 
-46.6314 35.1979 -76.6735 37 38 52 0.470377 0.188447 0.86211 
