ply
format ascii 1.0
comment Created by CloudCompare v2.11 alpha (Anoia)
comment Created 15/10/2019 14:55
obj_info Generated by CloudCompare!
element vertex 731
property float x
property float y
property float z
property uchar red
property uchar green
property uchar blue
property float nx
property float ny
property float nz
end_header
-24.1214 78.6521 -87.741 87 87 90 0.273704 0.520819 0.8086 
-23.9643 78.4491 -87.59 48 47 53 0.260182 0.433636 0.862708 
-24.1427 78.6974 -87.7517 92 93 93 0.0468635 0.651829 0.756917 
-23.0891 80.5641 -87.537 102 94 100 0.111987 0.240707 0.964116 
-24.0593 81.1872 -87.8622 108 103 106 0.307094 0.289462 0.90659 
-23.6551 78.573 -87.6623 105 102 109 0.257761 0.414528 0.872769 
-25.1088 76.2254 -87.5738 35 38 41 0.0498463 0.0392407 0.997986 
-23.7373 78.5746 -87.6437 107 105 111 0.104388 0.630738 0.768942 
-23.7432 78.3828 -87.469 112 109 116 0.230422 0.489838 0.840812 
-28.2985 79.7251 -87.3102 97 101 95 0.305547 0.0878612 0.948115 
-24.1345 78.6614 -87.7005 69 70 71 -0.0324392 0.658657 0.751744 
-23.9573 78.8351 -87.7776 78 77 81 0.0152371 0.608099 0.793715 
-23.547 76.9227 -87.3385 62 61 67 0.0148306 -0.502893 0.864221 
-23.8705 78.6675 -87.6625 125 123 128 0.237601 0.449475 0.861115 
-25.7094 76.6558 -87.4235 70 72 73 -0.11893 0.186532 0.975224 
-23.8958 78.3718 -87.4209 67 66 72 0.226946 0.488923 0.842288 
-23.7384 79.5944 -87.5841 106 103 104 0.3469 0.451445 0.822106 
-23.666 78.7177 -87.7435 113 110 117 0.236385 0.441152 0.865741 
-23.9751 78.7834 -87.7605 100 98 103 0.0267026 0.661943 0.749078 
-24.0028 78.7187 -87.7484 117 116 121 -0.0209263 0.645926 0.763113 
-27.6792 80.4092 -87.5571 115 109 113 0.36044 0.021806 0.932527 
-24.0314 78.2809 -87.2756 54 55 58 0.249476 0.475994 0.843321 
-22.5272 81.3879 -87.2982 96 90 97 0.182513 0.0761477 0.98025 
-26.2471 77.7726 -82.8093 125 153 120 -0.110911 0.723143 0.681736 
-24.3397 78.4195 -87.5794 80 86 74 0.273256 0.425913 0.862513 
-24.0188 78.9458 -87.6779 84 83 86 0.0208568 0.607628 0.793948 
-21.6645 77.2806 -87.7218 123 117 124 0.0415644 -0.195947 0.979733 
-22.8564 76.7127 -87.5782 67 66 67 -0.0264311 -0.599568 0.799887 
-25.3255 80.4784 -87.3229 95 95 97 0.215337 -0.0421049 0.975632 
-27.2031 75.8015 -87.5091 131 131 124 0.129595 0.250027 0.959527 
-23.5243 78.3904 -87.5225 109 105 113 -0.208021 0.833601 0.5117 
-25.0744 78.8267 -87.1394 140 170 103 0.0700506 -0.113689 0.991044 
-25.4743 78.6239 -87.6043 179 196 161 0.0200658 0.461513 0.886907 
-27.3143 76.8325 -87.7031 87 86 85 0.471595 -0.124708 0.872953 
-23.5067 78.7191 -87.472 108 105 107 0.231963 -0.204833 0.950914 
-28.1184 79.2102 -87.6052 124 120 120 0.0850405 0.371209 0.924647 
-23.3603 78.3215 -87.4748 48 43 52 -0.158725 0.835158 0.526609 
-26.9338 75.7155 -87.4733 102 103 94 0.00923407 0.444554 0.895704 
-21.6735 75.8113 -87.7124 126 118 125 -0.0949601 -0.00106697 0.99548 
-25.6634 75.7503 -87.4155 112 111 110 -0.0551766 -0.0135339 0.998385 
-26.6623 76.7129 -87.7492 96 99 96 -0.0796132 0.0116766 0.996757 
-26.2075 76.242 -87.3862 85 82 88 -0.172732 -0.0655192 0.982787 
-25.3941 76.1535 -87.6774 152 156 155 0.285265 0.0311425 0.957943 
-27.1562 78.7209 -87.6218 89 85 85 0.0941721 0.177337 0.979634 
-26.0549 80.8318 -87.3509 76 69 78 0.317195 0.0608496 0.946406 
-21.5403 75.8887 -87.8391 79 71 79 0.00971919 0.72894 0.684509 
-24.7515 79.8564 -87.3149 114 118 106 0.290636 0.250548 0.923448 
-27.8006 79.6936 -87.3853 103 123 93 0.056539 0.270131 0.961162 
-25.8332 77.1519 -87.6229 38 41 47 0.210732 -0.280511 0.936432 
-27.3913 77.0865 -87.479 120 123 117 0.255349 -0.0431749 0.965885 
-25.9239 77.4496 -87.573 58 64 68 -0.0265061 0.0625544 0.99769 
-23.0148 77.1318 -87.5696 79 80 81 0.371359 -0.325512 0.86956 
-27.2402 79.0784 -87.5785 88 83 83 0.0515443 0.379313 0.923832 
-23.1003 78.394 -87.3638 106 100 108 0.128255 -0.0419949 0.990852 
-26.1903 77.6864 -87.3709 117 117 114 0.0230536 0.253589 0.967037 
-24.8401 77.2935 -87.2564 72 78 73 -0.0921949 -0.654145 0.75073 
-26.9405 75.2889 -87.4253 116 118 102 0.101784 0.425264 0.899328 
-27.2208 76.3214 -87.0947 101 102 92 -0.202659 -0.478876 0.854171 
-25.5022 78.7705 -87.3305 161 164 149 0.188513 0.311396 0.931394 
-26.8153 76.0269 -87.5632 104 108 102 0.136709 0.235661 0.962172 
-25.576 75.4178 -87.8856 70 71 69 -0.0170679 0.162714 0.986526 
-26.6641 79.5518 -87.532 95 90 96 0.119094 0.265672 0.956679 
-27.9125 78.641 -87.4773 150 149 141 0.269725 0.172136 0.947427 
-21.9628 76.5312 -87.9235 146 141 143 0.21507 0.323318 0.921526 
-27.9308 79.022 -87.439 92 91 86 0.250728 -0.0230136 0.967784 
-26.1406 77.7397 -87.3162 111 125 106 0.0139367 0.0889803 0.995936 
-24.9779 75.3668 -87.9501 60 59 63 -0.0678291 0.285394 0.956007 
-23.8705 80.0422 -87.6279 91 87 84 0.427544 0.101664 0.89826 
-26.9485 79.8191 -87.7087 122 116 121 0.377727 0.0852933 0.92198 
-24.1896 75.2724 -87.6379 107 105 107 0.168426 0.294404 0.940723 
-23.7677 80.4085 -87.643 102 98 98 -0.0325054 -0.122176 0.991976 
-24.3587 75.2291 -87.6009 109 108 109 0.215074 0.135226 0.96719 
-26.7596 79.3246 -87.4859 85 81 85 -0.191892 0.251773 0.948572 
-24.5207 75.1509 -87.6436 94 91 92 0.215074 0.135226 0.96719 
-23.0449 78.4678 -87.3799 111 106 113 0.15105 0.205273 0.966978 
-25.8443 77.2278 -87.1652 84 92 84 -0.0722637 0.335041 0.939428 
-24.3041 75.2716 -87.7437 179 177 179 0.0487178 0.375259 0.925639 
-24.2642 75.4496 -87.6686 139 138 140 0.182069 0.277895 0.9432 
-22.5323 75.8219 -87.4291 92 88 94 0.641947 0.226478 0.732538 
-26.297 77.5517 -82.5678 120 153 110 0.452678 -0.0475788 0.890404 
-23.2533 75.5722 -87.5566 141 137 140 0.0528953 0.234953 0.970566 
-22.7826 80.9735 -87.4146 72 69 75 -0.206192 -0.440568 0.873719 
-24.1091 75.5089 -87.7161 148 148 150 0.182069 0.277895 0.9432 
-24.3587 75.4224 -87.7224 84 84 86 0.100985 0.241597 0.965108 
-24.0241 75.4173 -87.7483 148 147 150 0.0701966 0.350983 0.933747 
-28.1513 80.0814 -87.3245 69 68 68 0.465806 0.0971016 0.879543 
-24.4628 75.3091 -87.7312 139 137 138 0.0817583 0.240244 0.967263 
-24.0186 75.5196 -87.6892 161 160 163 0.0248718 0.396639 0.917638 
-24.1773 75.4385 -87.7221 155 154 157 0.214009 0.208625 0.954293 
-25.5896 78.107 -87.0813 151 153 141 0.0583441 0.432832 0.899585 
-26.527 79.4599 -87.5096 122 116 124 0.0508187 0.476597 0.877652 
-23.746 75.2926 -87.6457 160 155 160 -0.00129199 0.406977 0.913437 
-24.1672 75.6775 -87.7005 110 110 113 0.172136 0.269725 0.947427 
-27.055 76.7752 -87.7418 114 119 112 0.0350705 -0.0541998 0.997914 
-24.3841 75.7764 -87.6886 108 108 111 0.170126 0.276284 0.945899 
-24.6275 81.044 -87.5693 110 105 109 0.308613 0.0632721 0.949081 
-24.9424 75.1521 -88.0293 151 150 149 -0.0351757 0.2341 0.971576 
-24.2478 75.6118 -87.6635 75 74 77 0.172262 0.267209 0.948117 
-25.1659 79.9743 -87.6385 138 142 131 0.0563793 0.261851 0.96346 
-23.1812 76.7474 -87.3336 78 80 79 -0.040928 -0.616743 0.7861 
-23.8054 75.4561 -87.6522 134 131 135 0.0105709 0.217291 0.976049 
-23.9913 75.7503 -87.6844 130 128 133 0.168292 0.231898 0.958071 
-24.3868 75.7689 -87.7257 109 109 113 0.138715 0.19471 0.971003 
-24.1802 75.813 -87.6943 151 151 155 0.165764 0.294538 0.941153 
-24.9073 76.0921 -87.3852 66 70 70 0.104031 -0.167673 0.980338 
-27.6551 77.9881 -87.4067 113 116 110 -0.0605026 0.310237 0.948732 
-23.2358 76.8654 -87.6065 77 77 76 0.368148 -0.520597 0.770354 
-24.9231 76.2338 -87.1732 80 82 85 0.0660053 -0.309319 0.948665 
-26.6046 79.3841 -87.5377 121 115 122 -0.223223 0.305688 0.925595 
-23.7505 79.9178 -87.508 129 125 124 -0.0139403 0.343439 0.939071 
-23.718 75.9249 -87.6376 140 137 142 0.124806 0.34973 0.9285 
-24.2883 76.0005 -87.7392 54 53 60 0.209798 0.276488 0.937837 
-23.788 75.4385 -87.667 88 83 87 0.049975 0.154574 0.986716 
-23.9124 75.9719 -87.7423 60 58 64 0.207999 0.312705 0.926797 
-23.2725 79.5275 -87.4909 69 67 69 0.0329435 -0.0563227 0.997869 
-23.7961 75.7116 -87.6645 134 130 136 0.19128 0.220708 0.9564 
-24.1284 76.0729 -87.7204 56 56 61 0.242746 0.178372 0.95355 
-25.0994 78.3869 -87.2982 159 171 136 0.233503 0.548963 0.802568 
-25.4352 76.3238 -87.5596 83 90 86 0.107227 -0.0298468 0.993786 
-23.7817 79.5413 -87.4249 93 89 86 0.218477 0.0298466 0.975386 
-23.6788 80.6587 -87.6677 120 114 116 0.0428201 0.238569 0.970181 
-25.8507 78.873 -87.4929 137 134 136 0.00115206 0.197002 0.980402 
-23.3774 76.9734 -87.2987 63 64 67 0.0419482 -0.450605 0.891737 
-26.9607 75.6443 -87.4988 63 67 55 0.56572 0.160562 0.808814 
-24.129 78.1162 -87.0035 123 126 123 0.0986281 0.708062 0.699229 
-23.9675 80.9808 -87.8731 110 103 107 0.316042 0.0342696 0.948126 
-22.7914 76.3513 -87.8088 125 124 122 0.208857 0.295765 0.932149 
-25.5601 80.1128 -87.4985 100 98 102 0.261246 -0.0668892 0.962952 
-22.8912 76.5167 -87.8436 158 159 157 0.232311 0.0401375 0.971813 
-24.9578 75.7532 -88.1542 55 51 59 0.00301985 0.0291919 0.999569 
-23.0291 75.6405 -87.4777 132 127 131 0.0396278 0.130206 0.990695 
-28.0666 79.8444 -87.3888 129 124 127 0.43052 0.107981 0.896099 
-24.0782 76.6424 -87.33 35 39 38 -0.0202186 -0.0734254 0.997096 
-25.8464 80.4084 -87.442 72 71 74 0.266887 -0.156913 0.950868 
-22.4353 77.8327 -87.5851 106 103 105 0.335103 0.0696489 0.939604 
-22.2672 77.916 -87.6017 87 83 87 0.318837 0.055506 0.946183 
-24.5467 75.4032 -87.8837 110 107 110 -0.257794 0.377005 0.889612 
-22.5113 78.0294 -87.5345 121 116 121 0.379846 -0.0738216 0.922099 
-25.6843 77.8114 -82.8738 59 87 56 0.240003 0.314735 0.918336 
-22.1774 78.0408 -87.6119 148 143 148 0.234632 0.0376871 0.971353 
-23.0594 76.5427 -87.7693 117 119 117 0.270668 0.0436561 0.961682 
-25.3667 78.2547 -87.3523 94 110 89 0.273352 0.39417 0.877444 
-25.9907 80.0998 -87.3935 55 54 55 0.203359 0.200701 0.958313 
-25.4497 76.5792 -84.3323 122 151 115 0.311323 -0.461509 0.830715 
-27.4308 77.3633 -87.4371 122 118 120 0.0550528 -0.303431 0.951262 
-26.7107 75.2407 -87.3863 115 119 102 -0.0434882 -0.0434882 0.998107 
-24.9041 75.2963 -88.1416 84 84 84 -0.0338754 0.0885131 0.995499 
-24.7527 76.6431 -87.444 55 56 63 0.548235 -0.403356 0.732627 
-22.8504 76.1232 -87.9062 62 58 64 0.206215 0.222388 0.9529 
-22.9646 76.7019 -87.8407 74 75 74 0.190656 0.024563 0.98135 
-24.0453 76.6222 -87.3806 31 35 35 -0.0246256 -0.0760182 0.996802 
-22.9772 76.629 -87.8099 95 96 95 0.104079 0.0766298 0.991613 
-23.1886 76.7363 -87.7502 103 104 106 0.10177 0.302666 0.947648 
-28.1447 79.9649 -87.4829 123 118 122 0.188796 -0.0316615 0.981506 
-24.5237 78.0249 -86.7131 104 120 86 0.150979 0.49691 0.854568 
-22.4324 78.1379 -87.5729 93 89 93 0.275766 0.105863 0.955378 
-26.2369 77.3118 -83.0172 110 141 106 0.352496 0.0673307 0.933388 
-23.9111 78.948 -87.6892 109 106 111 0.236254 0.31071 0.920675 
-21.7273 76.1486 -87.8861 117 110 114 0.164881 0.362173 0.917412 
-22.2855 80.221 -87.3026 84 82 89 0.313568 0.0473552 0.948384 
-22.6189 76.5747 -87.7128 174 174 172 0.0567743 0.273778 0.960116 
-24.5995 76.9993 -87.5468 122 132 127 0.0592908 -0.0463546 0.997164 
-24.3609 79.8134 -87.5102 85 86 77 0.31333 0.198114 0.928749 
-24.0312 79.632 -87.5705 139 137 134 0.411886 0.101238 0.905594 
-24.3623 79.6544 -87.5112 81 79 75 0.439147 0.0199009 0.898195 
-24.1713 79.5663 -87.5591 113 111 108 0.409023 0.0950256 0.907563 
-21.3562 76.4228 -87.7019 58 56 59 -0.00556412 -0.14578 0.989301 
-25.0372 78.0336 -82.8336 109 135 103 0.0871954 0.0781362 0.993122 
-24.3039 79.5126 -87.5018 133 131 129 0.413374 0.0953939 0.905551 
-22.1616 78.6663 -87.4299 169 166 168 0.0377651 -0.00918611 0.999244 
-22.9421 76.6365 -87.1073 91 93 90 -0.0437454 -0.616669 0.786006 
-26.1401 80.6421 -87.3351 119 114 119 0.167151 0.0125079 0.985852 
-24.9371 79.4749 -87.2795 141 152 116 0.252147 0.213567 0.943828 
-25.4743 78.6067 -87.1542 139 142 125 0.125812 0.428327 0.894822 
-23.467 76.3924 -87.4477 58 57 62 -0.153185 -0.32983 0.931529 
-24.061 79.2721 -87.5799 119 117 119 0.432172 0.0444289 0.900696 
-22.9931 77.0756 -87.5337 66 68 68 0.589539 0.263949 0.763397 
-22.9841 79.3071 -87.4114 106 101 107 0.0761543 0.290419 0.953865 
-24.4935 79.6029 -87.4457 95 94 89 0.439147 0.0199009 0.898195 
-24.6289 79.5449 -87.4048 118 119 112 0.42859 0.0554328 0.901797 
-25.4418 75.7612 -87.6714 66 69 69 0.278697 0.028489 0.959956 
-24.2822 77.7629 -86.8529 71 77 71 0.308885 0.558553 0.769811 
-25.8075 77.8828 -82.9982 95 126 90 0.26002 0.312314 0.913701 
-27.5611 80.5155 -87.8706 186 179 185 -0.0367856 -0.110357 0.993211 
-24.9282 75.9764 -87.9208 24 20 26 0.572584 -0.481911 0.663257 
-27.3856 79.6469 -87.7974 33 31 30 0.399341 0.106399 0.910608 
-25.7603 77.8987 -82.8076 84 112 80 0.0702053 0.606058 0.792316 
-24.206 79.0845 -87.6949 98 98 99 0.172289 0.421311 0.890401 
-23.2085 78.3835 -87.5225 126 120 128 -0.150556 0.815388 0.558995 
-22.1879 76.1636 -87.9338 115 111 112 0.133147 0.344535 0.929283 
-24.5885 76.916 -87.2328 82 93 82 0.164207 -0.0101921 0.986373 
-26.6903 76.3791 -87.4367 98 95 99 0.0320952 0.0279539 0.999094 
-27.5796 78.611 -87.5677 131 128 122 0.114983 0.289441 0.950265 
-22.2361 79.6012 -87.432 27 22 28 0.575846 -0.214591 0.788893 
-27.3801 78.5283 -87.5926 103 99 96 0.117473 0.283784 0.951665 
-27.3082 78.401 -87.5233 78 74 73 0.165083 0.326003 0.930844 
-21.882 76.1245 -88.0896 121 120 123 -0.00526498 -0.0747627 0.997187 
-22.2834 75.9127 -87.6824 113 110 114 0.648734 0.234047 0.724132 
-25.5548 75.3367 -87.8142 75 78 74 0.225324 0.0226516 0.97402 
-22.0871 78.1735 -87.6281 156 150 156 0.187212 0.143911 0.971721 
-22.6634 77.5083 -87.6651 102 102 103 0.326994 -0.475484 0.816695 
-23.8183 80.6574 -87.8229 83 78 82 0.625945 0.185182 0.757562 
-22.444 78.686 -87.5723 137 131 137 0.282277 0.0335747 0.958745 
-21.95 79.2832 -87.5109 89 84 89 0.488332 -0.134762 0.862189 
-22.3785 77.5116 -87.6497 108 107 106 0.324515 -0.47965 0.815246 
-25.6616 77.5938 -87.4407 106 110 99 0.104579 0.212938 0.971453 
-26.5451 79.2041 -87.6381 91 92 90 0.283652 0.213787 0.934793 
-25.2047 75.8158 -87.8238 71 69 73 0.314908 -0.705718 0.634661 
-22.877 76.6887 -87.8441 137 138 136 0.187267 0.0057444 0.982292 
-26.266 75.4695 -87.6631 145 145 140 0.198324 0.0222967 0.979883 
-23.0626 76.7804 -87.7748 106 108 108 0.183806 0.00114165 0.982962 
-23.7681 76.0869 -87.6861 141 139 144 0.131149 0.360315 0.923565 
-27.048 78.7225 -87.5604 92 88 88 -0.0142456 0.389812 0.920784 
-27.1493 78.4972 -87.5266 82 80 78 0.00613164 0.295545 0.955309 
-24.7547 76.0583 -87.8953 42 41 49 0.0503605 -0.0482175 0.997567 
-25.8137 77.7518 -82.8406 62 91 57 0.0208568 0.607628 0.793948 
-23.3723 78.1256 -87.2462 39 40 43 0.219218 -0.482279 0.848145 
-22.5683 81.2368 -87.3193 91 83 91 0.186016 0.0636056 0.980486 
-26.0809 76.7114 -87.501 54 55 57 -0.0789242 0.183347 0.979875 
-21.8965 77.3948 -87.626 63 59 63 0.00570009 -0.178983 0.983836 
-24.4485 78.0625 -87.4842 94 103 87 0.199712 0.657965 0.726084 
-22.9401 80.1315 -87.4554 96 90 96 0.0984749 0.166556 0.981102 
-22.0372 78.0179 -87.6771 155 150 154 0.263526 0.040828 0.963788 
-25.2065 75.6908 -88.0511 101 101 103 0.140157 0.180563 0.973526 
-22.3974 76.9144 -87.8758 117 116 112 0.147382 0.0545429 0.987575 
-22.4063 80.7853 -87.3465 83 75 84 -0.0362353 0.0238118 0.99906 
-23.4161 76.3664 -87.728 102 102 104 0.0767347 0.193664 0.978062 
-27.0597 77.7474 -87.3223 110 110 108 0.0545017 0.00102833 0.998513 
-26.5101 77.4271 -87.5082 107 104 105 -0.299691 0.335475 0.893108 
-23.6645 79.1156 -87.6029 90 88 89 -0.0890723 -0.0732873 0.993325 
-24.9608 76.4346 -87.4948 42 42 48 0.54048 -0.365189 0.75797 
-24.1188 75.7807 -87.7475 145 144 148 0.113881 -0.19147 0.974869 
-23.9955 75.787 -87.7204 130 129 133 0.106028 -0.162089 0.981063 
-28.0579 80.2386 -87.4155 42 42 39 0.387747 0.0972794 0.916618 
-22.5149 77.8273 -87.6015 100 98 101 0.244407 0.0328308 0.969117 
-22.6116 77.5889 -87.6886 108 107 107 0.25074 0.0330243 0.967491 
-26.755 80.1743 -87.5032 90 92 94 -0.625003 -0.244019 0.741502 
-26.7285 79.7697 -87.6141 103 96 102 0.257092 0.0381333 0.965634 
-26.8241 78.3103 -87.4426 97 99 92 0.301281 0.0136383 0.953438 
-25.41 75.3802 -87.9648 90 95 89 0.127023 0.103281 0.986508 
-27.0342 78.5723 -87.5743 111 109 107 0.121955 0.1292 0.984091 
-23.7072 75.9491 -87.6674 134 132 136 0.279163 0.152393 0.948074 
-22.6566 77.8776 -87.3808 89 87 90 0.269528 -0.503223 0.821049 
-25.4986 77.4589 -87.3136 81 93 79 -0.134022 -0.117118 0.984033 
-24.6452 78.338 -87.181 111 128 89 0.274195 0.594353 0.756017 
-25.9883 78.9914 -87.392 55 52 55 0.496487 0.427667 0.755381 
-21.6838 76.6117 -87.631 99 92 97 -0.339362 -0.109515 0.934259 
-25.1923 79.4398 -87.3086 145 161 124 0.206644 0.177688 0.962146 
-24.9271 78.4839 -86.5705 137 159 104 -0.197364 0.797107 0.570673 
-25.1015 74.9867 -87.9328 111 114 107 -0.0822433 0.30417 0.949061 
-23.1527 76.9542 -87.0741 51 51 55 0.0619268 -0.715759 0.695597 
-28.1293 79.191 -87.3302 58 64 53 0.30851 0.242503 0.91979 
-24.5258 78.641 -87.4535 64 82 37 0.437124 0.111038 0.892521 
-26.3433 77.8792 -83.0259 86 118 84 0.0773003 -0.0402832 0.996194 
-24.6983 78.0549 -82.6336 90 109 86 0.0920654 0.185358 0.978349 
-26.7074 76.2088 -87.4607 106 108 104 0.204093 0.0696606 0.97647 
-23.6157 76.8222 -87.2885 69 70 75 0.135192 -0.498612 0.856218 
-23.0035 75.9454 -87.7334 146 144 143 0.205483 0.00348276 0.978655 
-26.5749 75.9684 -87.4622 64 63 59 -0.0472985 -0.0824974 0.995468 
-24.0688 76.3661 -87.547 53 55 58 0.0446496 -0.445143 0.894346 
-26.1192 79.8772 -87.345 84 84 85 0.156445 0.258067 0.953376 
-23.226 79.4364 -87.4612 95 89 96 -0.0447573 0.451641 0.891076 
-23.5432 77.1705 -86.95 39 39 44 0.146113 -0.727552 0.670312 
-25.5058 77.3774 -87.0386 108 113 108 0.215996 0.14098 0.966163 
-26.6881 74.7423 -87.5334 90 93 79 0.651398 0.209878 0.729131 
-24.6601 75.5574 -87.9807 124 123 126 -0.254432 0.382392 0.88828 
-26.1767 80.8701 -87.3931 92 98 97 0.410726 -0.197324 0.89015 
-27.4961 77.3432 -87.4191 119 123 117 0.360096 -0.511885 0.779939 
-23.7704 80.1998 -87.7838 119 113 113 0.400093 0.0948673 0.911551 
-26.4725 77.9309 -82.8858 88 117 85 0.252562 -0.519069 0.816566 
-28.1285 79.5867 -87.3351 134 142 136 0.0565772 0.267799 0.961812 
-21.5747 76.3515 -87.8281 120 112 117 0.115675 0.2965 0.948002 
-22.0151 78.6017 -87.4216 145 139 145 0.134058 0.171645 0.975995 
-26.9862 75.0775 -87.4521 105 109 94 0.00120145 0.263117 0.964763 
-24.3012 78.1387 -87.2643 83 91 76 0.427155 0.107839 0.897725 
-22.1702 78.5249 -87.4522 153 148 154 0.14154 0.112506 0.983519 
-24.7521 78.409 -87.2845 120 139 95 0.271419 0.48235 0.832869 
-23.8108 77.1803 -87.1769 32 35 42 -0.0405372 -0.566122 0.823324 
-22.8898 76.7188 -87.9186 109 107 111 0.00114324 0.188635 0.982047 
-23.2307 78.6261 -87.3485 98 96 99 0.195169 0.0222048 0.980518 
-21.9555 78.4469 -87.3847 113 107 113 0.130955 0.170866 0.976553 
-22.5787 76.9616 -87.7712 108 110 104 0.214077 0.0058491 0.976799 
-23.6496 76.3138 -87.6572 82 81 87 -0.0381221 -0.650899 0.758206 
-24.4529 79.2185 -87.4874 102 105 99 0.206947 0.0271988 0.977974 
-26.1374 76.5075 -87.513 85 83 84 -0.174686 0.0606053 0.982757 
-26.274 76.5824 -87.471 95 88 95 0.524395 0.0177069 0.851291 
-21.6609 77.5451 -87.5949 126 120 126 -0.147819 0.574853 0.804794 
-21.3072 75.9288 -87.6615 113 105 113 -0.0526665 0.00516339 0.998599 
-25.7187 80.0233 -87.5782 107 104 110 0.0443727 0.428936 0.902244 
-24.7644 76.755 -87.0966 55 58 62 0.515404 -0.0343603 0.856258 
-25.4077 77.9586 -82.846 117 145 113 0.0353938 0.68947 0.723448 
-22.2189 76.9063 -87.9457 147 144 144 -0.234569 -0.0950954 0.967437 
-22.3474 79.0051 -87.4978 135 129 135 0.116106 0.220729 0.9684 
-22.5279 79.2163 -87.4725 113 107 113 0.179382 0.00799794 0.983747 
-21.9818 78.9709 -87.5407 102 96 102 0.105892 0.193097 0.975449 
-22.4944 78.7178 -87.4142 127 121 126 0.122691 0.169785 0.977814 
-25.1776 78.1697 -87.2668 129 143 109 0.0703215 0.0770188 0.994547 
-25.9324 79.7071 -87.2963 47 45 47 0.0895223 0.149204 0.984746 
-25.5674 79.5564 -87.512 112 122 104 0.274849 -0.254912 0.92708 
-22.2822 78.6146 -87.4478 102 96 102 0.108085 0.151805 0.982483 
-22.2172 79.0102 -87.5277 104 98 104 0.117576 0.244196 0.962572 
-21.8996 78.2634 -87.4715 147 141 147 0.112101 -0.00761848 0.993668 
-26.2494 76.4286 -87.4162 99 101 100 0.0235284 0.0235284 0.999446 
-25.331 76.7131 -83.8721 132 147 124 0.724227 -0.223681 0.652274 
-26.4681 78.9197 -87.2991 94 91 94 0.207262 0.207262 0.956078 
-23.0364 78.9219 -87.3879 141 139 141 -0.0111506 0.303543 0.952753 
-25.5122 80.0527 -87.6175 102 101 104 0.236625 0.236625 0.942347 
-21.6894 78.1516 -87.5501 117 113 117 0.052503 -0.0460741 0.997557 
-25.2016 75.6636 -88.1153 123 126 125 -0.018198 0.0802851 0.996606 
-24.828 75.4361 -88.1342 106 106 107 0.0125079 0.167151 0.985852 
-23.0057 77.2351 -87.5462 52 56 55 0.369332 -0.329487 0.868926 
-22.2762 79.1732 -87.5487 102 96 102 0.120414 0.115645 0.985965 
-22.1048 78.9873 -87.5527 80 74 80 0.161877 0.252849 0.953868 
-22.7969 79.1691 -87.4032 90 85 89 0.0897631 0.190593 0.977557 
-22.0108 78.175 -87.5585 135 130 135 0.174169 -0.00796854 0.984683 
-22.223 79.3049 -87.5891 106 99 106 0.212646 0.297141 0.930854 
-25.3098 78.1747 -82.8026 133 161 125 -0.00324409 -0.11138 0.993773 
-21.9825 78.966 -87.5624 102 96 102 0.181737 0.274655 0.944212 
-22.2826 79.8808 -87.571 92 86 93 0.0544547 -0.142509 0.988294 
-22.1197 79.2307 -87.5742 120 114 120 0.120698 0.115918 0.985898 
-26.0091 75.4083 -87.612 116 122 112 0.193921 -0.0590194 0.97924 
-27.0493 80.1098 -87.8038 118 113 116 0.133817 0.235154 0.962702 
-22.6968 79.3912 -87.4241 121 116 121 0.0838217 0.178577 0.980349 
-23.1493 80.7196 -87.5763 105 97 103 -0.178732 0.336353 0.92462 
-28.223 79.5184 -87.3998 116 112 115 0.111848 -0.0276851 0.99334 
-26.9733 76.7792 -87.7024 138 134 137 0.543441 -0.0635191 0.837041 
-24.6651 79.2943 -87.4863 104 107 100 0.174963 0.328931 0.928005 
-26.0426 75.1372 -87.8225 96 95 94 0.206598 0.103925 0.972891 
-22.3863 79.5043 -87.5045 100 93 100 0.285265 0.0311425 0.957943 
-21.4714 76.1523 -87.9448 89 86 91 -0.225932 -0.150186 0.962496 
-27.3566 78.7748 -87.4895 139 137 129 -0.0532555 0.460182 0.886226 
-21.6866 76.2557 -87.7186 105 101 105 0.0241912 -0.0557451 0.998152 
-26.8307 76.7971 -87.7223 109 107 107 0.220538 0.0106141 0.975321 
-21.9002 78.5169 -87.3978 157 151 157 0.0870357 -0.0161177 0.996075 
-24.5041 76.103 -87.7103 63 64 69 0.199155 0.041739 0.979079 
-26.472 75.4654 -87.5827 123 122 113 0.133856 0.401568 0.905994 
-24.4774 77.6513 -86.8056 81 95 72 0.395231 0.436835 0.808064 
-26.1436 77.5966 -86.9051 87 98 84 0.458384 0.114951 0.881289 
-22.0776 77.7973 -87.6839 133 129 132 0.11474 0.0120204 0.993323 
-25.9395 77.5709 -82.8636 97 129 89 0.44673 0.24078 0.861659 
-21.748 77.899 -87.6458 120 116 120 0.133973 -0.00775048 0.990955 
-22.7327 79.6115 -87.4011 108 102 109 0.112793 0.117542 0.986642 
-22.2317 79.3875 -87.4905 101 95 101 0.284586 0.0310683 0.958147 
-21.855 77.6811 -87.6534 103 98 102 0.130936 -0.00550153 0.991376 
-22.3382 79.7178 -87.4509 99 92 100 0.211359 0.00583866 0.977391 
-22.4257 79.7371 -87.4579 98 92 99 0.154342 0.132117 0.979144 
-22.075 79.4413 -87.5312 115 109 114 0.284586 0.0310683 0.958147 
-24.7297 80.6891 -87.5674 89 88 88 0.269685 -0.263977 0.92606 
-22.2862 79.5533 -87.4796 73 67 73 0.284586 0.0310683 0.958147 
-25.345 77.5203 -83.1476 65 75 61 0.527943 -0.592039 0.608906 
-22.1343 79.379 -87.6817 109 102 109 0.384831 0.0796667 0.919543 
-25.5212 80.172 -87.3903 88 87 86 0.378471 -0.201561 0.903401 
-21.925 78.6856 -87.5726 115 109 115 0.390823 0.0857904 0.916459 
-22.9356 77.0174 -87.5751 58 62 59 0.174169 -0.00796854 0.984683 
-23.4678 76.861 -87.634 60 59 64 0.140503 0.181008 0.973394 
-22.8975 76.8258 -87.5414 61 64 63 -0.00136093 -0.56751 0.823366 
-23.1539 80.7781 -87.5165 101 94 100 0.214383 -0.172295 0.961434 
-27.2952 79.6468 -87.6884 54 55 50 0.0686073 0.0490052 0.996439 
-22.3485 79.6924 -87.454 95 88 96 0.190229 -0.022174 0.981489 
-23.1946 78.5864 -87.3973 116 111 117 0.0871986 0.295434 0.951375 
-22.8008 77.074 -87.8983 114 112 112 0.493524 0.460512 0.73781 
-25.9653 76.6141 -87.3081 62 60 66 0.0550867 -0.0550867 0.996961 
-25.3971 77.4605 -83.1322 85 105 82 0.237725 -0.0155298 0.971208 
-24.3827 77.1516 -87.3467 69 71 74 -0.10762 -0.638349 0.762186 
-27.4098 76.8791 -87.8332 155 157 152 0.00386574 0.400748 0.91618 
-27.8465 78.048 -87.3322 112 109 108 0.217439 0.172634 0.960686 
-24.5456 76.3324 -87.6323 39 39 48 0.50224 -0.312117 0.806435 
-22.7343 79.6694 -87.3213 105 100 107 0.196384 -0.0440375 0.979538 
-22.5302 79.8314 -87.4052 162 155 163 0.240535 0.015557 0.970516 
-27.0698 75.6017 -87.5255 69 72 60 0.118329 0.399536 0.909048 
-27.0031 78.2927 -87.6613 102 99 99 0.198507 -0.162179 0.966588 
-22.1349 76.8933 -87.8818 119 116 117 0.153097 0.118803 0.981044 
-24.6144 76.3082 -87.6327 43 42 51 0.259028 -0.335127 0.905867 
-23.2601 77.1198 -87.0859 36 39 44 -0.0363676 -0.448533 0.893026 
-22.4924 80.6412 -87.4503 76 68 77 0.309573 0.0552349 0.94927 
-21.2917 76.7789 -87.5116 124 119 122 -0.0905771 -0.0905771 0.991762 
-22.5145 79.9419 -87.3956 129 123 131 0.207812 0.0176112 0.97801 
-24.6139 75.8733 -88.0446 58 55 61 -0.165256 -0.0312022 0.985757 
-26.1415 77.5182 -83.0426 81 116 76 0.343038 0.0644018 0.937111 
-22.5956 80.0077 -87.3809 97 91 98 0.130743 -0.0212318 0.991189 
-25.7159 77.9175 -86.9946 104 118 99 0.236216 0.526468 0.816721 
-24.8919 76.8853 -83.5552 106 118 96 0.302994 0.175709 0.936654 
-22.3349 80.1218 -87.4687 124 117 125 0.12688 -0.00992972 0.991868 
-24.1783 76.7264 -87.3407 83 88 83 0.027577 -0.106999 0.993877 
-22.5303 80.1911 -87.4821 108 101 110 0.122263 -0.0121162 0.992424 
-23.5615 79.834 -87.5489 104 99 102 0.00128514 0.394539 0.918878 
-25.5801 77.2525 -83.3171 51 60 45 0.615155 -0.428441 0.661833 
-22.5071 76.7189 -87.5582 61 59 60 0.0263608 -0.575774 0.817184 
-21.4754 76.241 -87.7915 75 70 75 0.0773003 -0.0402832 0.996194 
-22.002 79.8761 -87.3334 109 103 109 0.186429 -0.00114373 0.982468 
-24.1056 77.1532 -86.8993 53 55 57 0.0435571 -0.591533 0.805103 
-24.7429 75.8544 -88.0142 59 55 63 0.0221298 -0.0600666 0.997949 
-22.5999 80.0002 -87.4095 91 84 92 0.172007 0.136852 0.975543 
-22.6421 80.3528 -87.4713 121 113 122 0.00579682 0.20057 0.979662 
-25.9228 79.9174 -87.391 86 86 87 0.163387 0.26871 0.949263 
-23.2761 76.6617 -87.2934 99 100 98 -0.0702884 -0.601038 0.796124 
-22.7473 79.9204 -87.4599 96 90 96 0.15696 0.105857 0.981915 
-26.8649 74.5648 -87.5714 144 145 131 0.618544 0.178691 0.765162 
-22.8619 80.1945 -87.486 92 85 92 0.0977478 0.118946 0.988078 
-22.6432 80.4743 -87.48 105 98 106 -0.0571183 0.148041 0.98733 
-24.7523 77.0267 -87.4214 77 90 75 0.16093 -0.00337615 0.98696 
-22.1355 80.0605 -87.4251 66 60 68 0.120089 0.0143225 0.99266 
-24.5206 79.2476 -87.437 100 105 93 0.42859 0.0554328 0.901797 
-25.2055 77.4572 -83.8281 99 126 94 -0.438872 0.498046 0.747891 
-22.9262 80.3233 -87.5357 131 123 131 0.0523339 0.0924194 0.994344 
-22.8367 79.9294 -87.3875 98 91 97 0.122175 0.192709 0.97362 
-24.5191 77.8002 -87.0039 86 100 78 -0.431957 -0.209299 0.877273 
-23.126 76.9952 -87.4429 68 70 70 0.196558 0.00114946 0.980491 
-25.7205 78.8615 -87.3475 140 138 137 0.014732 0.159785 0.987042 
-27.0695 76.8849 -87.5946 121 118 120 -0.457506 0.608332 0.648552 
-23.2812 76.7692 -87.6335 128 129 129 0.400822 0.515343 0.757472 
-26.9136 78.4619 -87.6588 104 100 101 0.247873 0.0229736 0.96852 
-23.0306 80.4003 -87.5373 119 112 119 0.0523339 0.0924194 0.994344 
-24.4114 77.3322 -87.0133 52 57 52 0.69901 -0.337284 0.630575 
-25.2834 75.8578 -87.9144 100 103 103 0.0311229 -0.472255 0.880912 
-22.3538 80.5035 -87.4091 82 75 84 0.119569 -0.0120666 0.992753 
-26.2713 76.7886 -87.4354 117 119 119 0.021524 0.0297236 0.999326 
-22.3302 78.6178 -87.4756 109 106 107 0.0277294 -0.0256754 0.999286 
-22.9437 79.9827 -87.4925 109 102 109 0.0556075 0.173921 0.983188 
-26.6053 75.0195 -87.523 110 114 96 0.136553 -0.141474 0.980479 
-26.0196 76.6692 -87.4884 80 75 82 0.533355 -0.0545954 0.844128 
-24.6858 79.1704 -87.4904 98 106 92 0.229497 0.00353072 0.973303 
-24.1538 77.8126 -86.6688 65 70 69 -0.0650571 0.477547 0.876194 
-24.6464 80.3523 -87.6783 61 61 58 0.247003 -0.542164 0.803149 
-26.2366 77.2099 -87.4295 101 101 101 -0.184039 0.330146 0.925815 
-25.3563 78.4435 -82.8029 106 121 100 0.0682399 0.299998 0.951496 
-25.5368 75.6997 -88.058 79 82 78 0.0206507 0.258742 0.965726 
-22.8875 79.84 -87.4962 103 96 103 -0.0135339 0.0551766 0.998385 
-23.2083 80.1751 -87.5781 124 117 123 0.107509 0.181653 0.977468 
-22.8081 79.8135 -87.3873 103 97 104 0.0889591 0.221771 0.971032 
-23.14 80.4983 -87.5309 76 69 75 0.0451765 0.0892511 0.994984 
-23.0934 79.7728 -87.4431 104 98 105 0.0108142 0.253532 0.967267 
-26.1206 78.2012 -87.5871 143 142 136 0.232492 0.0301156 0.972132 
-23.3791 77.21 -86.7615 44 45 49 0.501704 0.344621 0.793429 
-25.9623 77.7357 -87.546 90 101 89 -0.106251 0.201252 0.97376 
-25.5169 78.4296 -86.9086 123 138 113 0.596504 -0.427024 0.679583 
-23.0426 79.2454 -87.6561 101 95 103 0.449499 0.317939 0.834785 
-23.1367 80.2628 -87.5881 145 138 144 0.109783 0.176393 0.978179 
-24.4147 77.3762 -87.2366 61 70 59 -0.0834462 -0.270879 0.95899 
-26.0514 79.6169 -87.508 64 64 60 0.102554 0.226632 0.968566 
-25.8432 76.0194 -87.4225 98 98 98 -0.0550636 -0.0114283 0.998417 
-25.1398 78.9156 -87.3207 158 180 123 0.0653573 0.485313 0.871894 
-23.2154 80.0606 -87.5533 121 114 120 0.104445 0.173255 0.979323 
-27.7793 78.5823 -87.0625 99 101 94 0.315696 0.0579849 0.947087 
-22.473 78.5247 -87.2116 94 92 94 0.0574135 -0.297274 0.953064 
-22.9904 80.8076 -87.4829 94 86 93 -0.071067 0.0535736 0.996032 
-28.0302 79.557 -87.3272 65 66 64 0.251291 0.0380002 0.967165 
-28.1823 79.78 -87.4934 107 114 103 0.30219 0.113155 0.946508 
-26.6602 78.1993 -87.5207 102 106 99 0.384281 -0.378007 0.842282 
-23.3764 79.8801 -87.4709 127 121 125 0.022327 0.203293 0.978863 
-23.9533 76.911 -87.192 36 36 44 -0.0436326 -0.601004 0.798054 
-24.0047 76.453 -87.5094 62 65 67 -0.0883209 -0.0338018 0.995518 
-25.4827 75.5255 -88.1075 48 49 48 0.0511107 0.119258 0.991547 
-24.387 77.9186 -87.0259 90 103 86 -0.111403 0.0723542 0.991138 
-24.9748 76.8874 -86.8819 86 90 91 0.723133 -0.199752 0.661194 
-25.9398 79.199 -87.3513 110 107 111 0.114627 0.385314 0.915638 
-23.1472 76.8361 -87.0864 52 52 53 -0.120269 -0.660739 0.740918 
-23.6556 80.0579 -87.7301 100 95 96 0.400356 0.0356753 0.915665 
-21.9847 79.4562 -87.4749 65 60 66 0.407359 -0.257042 0.876349 
-23.6862 80.1443 -87.6313 130 124 125 0.0965642 0.371296 0.92348 
-23.2081 80.3817 -87.6838 87 80 86 0.0577956 0.309528 0.949132 
-26.3407 76.1524 -87.6113 74 81 73 0.147559 0.145079 0.978355 
-23.3505 80.0996 -87.6041 112 105 110 0.0664905 0.327237 0.9426 
-25.5952 76.3369 -87.4027 42 48 45 -0.0878153 0.162398 0.98281 
-23.798 80.0383 -87.5054 85 81 79 -0.229583 0.485014 0.843833 
-25.4906 76.4008 -87.4069 49 52 51 0.0734254 -0.0202186 0.997096 
-27.537 77.619 -87.3447 110 116 108 0.256374 -0.0108327 0.966517 
-23.4277 80.271 -87.6762 123 116 121 0.028848 0.304785 0.951984 
-26.6545 76.7584 -87.5306 100 102 100 -0.122655 0.198525 0.972391 
-24.5561 79.114 -87.538 99 106 93 0.272984 0.290316 0.917168 
-28.2475 79.9559 -87.5158 104 109 101 0.303851 0.213402 0.928512 
-26.2349 77.3011 -82.6689 67 99 58 0.490752 -0.0801515 0.867605 
-22.8264 80.7201 -87.5279 50 46 51 -0.0156477 -0.246752 0.968952 
-23.2049 80.4929 -87.713 91 84 89 -0.0145261 0.437102 0.899295 
-27.8024 79.8115 -87.3013 119 137 108 0.180786 0.00113702 0.983522 
-24.4043 76.5012 -87.6316 60 62 66 0.0221298 -0.0600666 0.997949 
-23.3549 79.9945 -87.5458 103 96 102 0.0614382 0.335949 0.939874 
-23.4108 80.5491 -87.781 115 108 112 0.0118579 0.441376 0.897244 
-25.7193 78.6092 -87.4066 115 116 106 0.102836 0.272061 0.956769 
-28.2201 80.0067 -87.4025 74 74 70 0.125516 -0.018883 0.991912 
-23.9481 77.196 -86.9117 41 41 46 0.0435571 -0.591533 0.805103 
-25.4096 80.679 -87.4282 103 105 104 0.298516 -0.154029 0.941893 
-23.4352 80.5077 -87.7813 118 111 114 -0.102881 0.327347 0.939287 
-24.0291 79.7781 -87.5128 135 132 128 0.0515215 0.197699 0.978908 
-25.1776 78.5096 -87.3217 115 134 96 0.18276 -0.0436266 0.982189 
-25.5046 75.6099 -87.7755 60 58 65 0.552628 -0.1832 0.813044 
-26.7635 79.9451 -87.4964 118 111 118 -0.00629205 0.341029 0.940032 
-24.5235 79.1198 -87.4964 103 115 89 0.318595 0.0689206 0.945382 
-23.8255 79.7174 -87.4663 118 114 115 0.115233 -0.0164619 0.993202 
-25.7594 79.1105 -87.2979 87 93 76 -0.00123331 0.30956 0.950879 
-25.1681 76.8132 -83.6071 118 130 111 0.212875 0.226434 0.95048 
-25.1268 76.4513 -87.2212 50 52 56 0.065224 -0.37404 0.925116 
-25.3549 76.9448 -83.4775 91 99 87 0.28713 0.269816 0.919106 
-26.6849 79.5304 -87.3512 76 79 73 0.0419508 0.209754 0.976854 
-23.5291 80.6987 -87.8052 89 82 86 -0.172132 0.301575 0.937775 
-23.6833 79.7622 -87.3775 115 110 113 0.105712 0.233077 0.966695 
-25.8533 78.7067 -87.5764 113 122 104 0.0252004 0.428406 0.903235 
-23.5177 80.6545 -87.8314 99 92 96 0.0118579 0.441376 0.897244 
-22.9947 76.7997 -87.6947 105 103 103 0.330662 -0.476216 0.814789 
-21.9019 76.6626 -87.8005 132 127 130 -0.202314 -0.128514 0.970852 
-24.7556 79.5164 -87.3404 124 135 106 0.251998 0.216195 0.943269 
-22.6462 77.1253 -87.9173 115 113 112 0.395037 -0.492577 0.775444 
-23.5774 80.9107 -87.6661 107 100 105 -0.122593 -0.200952 0.9719 
-26.1474 76.6586 -87.4255 98 106 99 -0.0528483 0.106821 0.992873 
-22.3031 80.4866 -87.4126 77 70 79 0.0546397 -0.0460688 0.997443 
-26.82 77.2055 -87.6343 117 113 116 -0.350478 0.49451 0.795377 
-23.6871 80.6214 -87.8458 119 113 115 -0.0319318 0.335922 0.941348 
-25.4992 76.5563 -87.4818 84 91 87 -0.109465 0.20509 0.972602 
-26.658 75.3389 -87.6045 119 123 109 0.608512 0.178436 0.773223 
-24.7834 76.7286 -87.5148 54 62 57 0.0598747 -0.508239 0.859132 
-25.5593 78.9666 -86.9546 107 120 94 0.411886 0.101238 0.905594 
-27.7073 79.8423 -87.4992 113 124 106 0.210949 0.286388 0.934603 
-25.7198 76.7392 -87.475 69 75 71 -0.0468046 0.20282 0.978097 
-24.5849 75.0806 -87.7334 101 98 100 0.293691 0.656391 0.694908 
-27.2344 78.7466 -87.5779 95 91 89 0.00124299 0.324419 0.945912 
-23.1608 81.0213 -87.5905 68 66 71 -0.174325 -0.4468 0.877485 
-26.379 75.683 -87.6727 125 128 119 0.11424 0.435803 0.892762 
-265.288 -20.4014 -86.1563 134 172 197 0.108177 0.989876 -0.0918921 
-27.6874 77.5887 -87.4125 134 132 132 0.272313 -0.136821 0.952431 
-23.4741 79.8044 -87.5188 88 82 86 0.304322 0.136607 0.942723 
-25.0928 75.9508 -87.8484 76 73 81 0.5481 -0.497816 0.672135 
-26.9287 78.8042 -87.5626 74 72 71 0.118518 0.15273 0.981136 
-25.522 78.5035 -87.4932 119 117 107 0.0254465 0.45402 0.890628 
-26.1278 80.0655 -87.37 86 84 87 0.114378 0.28003 0.953153 
-23.8657 76.2627 -87.5812 70 71 75 0.013885 -0.0822419 0.996516 
-27.0843 79.14 -87.6237 86 81 82 0.0196494 0.407397 0.91304 
-24.4358 79.1751 -87.682 81 82 74 0.534133 -0.412515 0.737925 
-25.9615 78.1027 -87.3806 145 160 136 0.0337681 0.288905 0.956762 
-21.4441 77.6325 -87.5108 56 50 56 0.267554 0.606351 0.748835 
-25.9415 74.9224 -87.8506 159 155 155 0.230433 0.0734894 0.970309 
-24.3255 78.9301 -87.7987 119 123 111 0.288764 0.414048 0.863238 
-24.5021 79.0426 -87.6614 99 106 84 0.28825 0.436228 0.852418 
-24.1748 79.0126 -87.7503 84 83 83 0.288764 0.414048 0.863238 
-23.519 77.4478 -86.8033 40 41 46 0.511423 0.422623 0.748223 
-23.2607 81.0741 -87.4462 96 88 94 -0.159963 0.375135 0.913064 
-24.5583 79.1887 -87.6563 105 106 100 0.308959 0.401186 0.862319 
-25.1281 77.9704 -87.1549 109 121 92 0.376872 0.0823985 0.922593 
-23.3711 80.5426 -87.7581 86 82 86 -0.00126618 0.365926 0.930643 
-22.8907 77.2285 -87.7091 46 48 48 0.343064 -0.370756 0.863045 
-22.6939 81.2132 -87.3826 89 82 87 0.230067 -0.0867468 0.969301 
-25.9535 78.2636 -87.2716 148 148 140 -0.108562 0.231172 0.966837 
-24.5366 77.8134 -87.1643 87 101 81 0.021969 0.176909 0.983982 
-25.749 80.8016 -87.4653 110 105 112 0.178584 0.00341244 0.983919 
-23.0565 80.5786 -87.6453 114 106 113 0.0609544 0.182863 0.981247 
-24.3621 75.5088 -87.8195 92 88 93 -0.0297236 0.021524 0.999326 
-27.1002 80.3843 -87.6936 139 132 138 0.0456387 -0.0990694 0.994033 
-26.9668 80.3398 -87.6456 101 93 101 0.028348 -0.0472467 0.998481 
-25.6585 77.8977 -82.8369 80 108 74 0.616736 -0.423902 0.663282 
-26.48 77.942 -87.5649 107 112 103 0.19877 0.0246992 0.979735 
-25.7351 75.3516 -87.8694 112 112 112 -0.0124846 0.16457 0.986286 
-21.5092 76.896 -87.5999 78 75 81 -0.245 -0.152297 0.957487 
-22.964 79.6368 -87.4684 98 92 99 0.0165238 0.349543 0.936775 
-26.1053 75.742 -87.502 105 106 104 -0.131476 -0.0959423 0.986666 
-23.9702 76.1407 -87.7242 58 57 63 0.220836 0.28554 0.932576 
-27.9415 80.4055 -87.5034 48 47 44 0.386006 0.0913866 0.917958 
-25.3902 78.5903 -87.4684 157 161 139 0.0712827 0.388693 0.918606 
-25.4675 78.3851 -87.4345 154 154 142 0.0254465 0.45402 0.890628 
-26.7038 78.7048 -87.534 97 93 96 0.133263 0.135708 0.981746 
-26.6031 78.9317 -87.561 58 55 58 0.0562091 0.129625 0.989969 
-27.2884 77.1847 -87.6212 104 102 102 0.23904 -0.467422 0.851103 
-27.0897 77.0516 -87.7623 108 105 106 0.420468 -0.407678 0.810559 
-27.2633 76.0015 -87.4549 121 124 113 -0.0988541 -0.103506 0.989704 
-24.0737 76.0585 -87.6727 47 45 52 0.0393987 -0.0543064 0.997747 
-23.6115 79.1954 -87.4417 108 104 109 0.298951 0.0763555 0.951209 
-25.76 76.7841 -87.4748 63 67 67 -0.138097 0.215535 0.966682 
-25.7907 80.7721 -87.4029 67 67 70 0.390542 -0.154797 0.907477 
-26.8558 80.2604 -87.5705 114 106 114 -0.118924 -0.027786 0.992514 
-24.3565 75.7435 -87.854 125 125 129 -0.0645304 0.149007 0.986728 
-22.5876 79.1744 -87.5183 131 125 130 0.0481146 -0.0502531 0.997577 
-24.5399 78.0756 -87.0696 114 131 100 0.194453 0.517034 0.833585 
-23.227 76.6271 -87.8424 133 134 135 0.074277 0.311442 0.947358 
-24.1796 77.8493 -86.7069 64 67 64 0.512794 0.440245 0.737039 
-21.6544 76.1081 -87.8898 120 112 117 0.256997 0.248571 0.933898 
-21.7317 75.8989 -87.8722 92 84 90 0.304262 0.25235 0.918555 
-23.6946 79.0032 -87.5641 85 82 83 -0.0260362 -0.0426994 0.998749 
-21.8741 77.8283 -87.69 91 86 90 -0.0516426 -0.198163 0.978808 
-21.346 77.2082 -87.5367 114 106 113 -0.134318 -0.149105 0.979656 
-23.023 77.9544 -87.428 123 119 125 0.14478 0.14478 0.978814 
-21.2309 76.7889 -87.451 131 123 132 -0.128875 0.0934047 0.987252 
-24.1176 79.9215 -87.596 93 94 86 0.0805677 0.0873763 0.992912 
-23.216 76.9331 -87.4987 55 56 60 0.482669 -0.453017 0.749537 
-22.7244 79.0919 -87.3877 108 103 108 0.143285 -0.00555368 0.989666 
-24.8173 78.3056 -82.922 118 140 112 0.109205 -0.566411 0.816855 
-23.6461 80.4272 -87.8081 94 87 92 0.60036 0.177828 0.779708 
-26.029 77.1306 -87.4352 78 92 76 -0.0616197 0.0929898 0.993758 
-27.4345 78.7624 -87.6534 141 139 131 -0.0718617 0.402697 0.912508 
-25.1503 79.8534 -87.5716 143 153 128 0.294379 -0.257043 0.920473 
-23.4168 79.6395 -87.5238 100 94 100 0.299022 0.130068 0.94534 
-24.3498 76.1595 -87.7716 53 54 59 0.155497 0.320626 0.934355 
-22.5986 81.2084 -87.4374 89 80 89 0.689177 0.143264 0.710289 
-25.2227 77.2165 -83.7918 108 119 103 0.343226 0.539815 0.768632 
-27.3442 78.0294 -87.5498 98 96 93 0.140018 0.101722 0.98491 
-23.5075 78.6746 -87.5844 107 104 106 0.258115 0.418117 0.870951 
-25.9408 77.696 -82.7948 88 119 85 0.17189 0.459843 0.871205 
-24.8678 79.617 -87.2932 133 146 115 0.172642 0.167527 0.970633 
-22.4637 78.3162 -87.4073 180 176 181 0.196043 0.0742771 0.977778 
-24.442 77.8149 -87.189 50 57 51 0.136804 0.071325 0.988027 
-22.3138 80.333 -87.5184 71 64 73 0.113062 -0.0186608 0.993413 
-22.4725 76.7802 -87.9437 140 139 137 0.188955 0.01507 0.98187 
-28.3991 80.3275 -87.4655 110 103 110 0.0981577 0.197558 0.975365 
-25.6465 75.5565 -87.6571 108 107 110 0.609643 -0.171795 0.773836 
-25.8701 75.983 -87.5526 109 107 110 0.216201 0.0298621 0.975892 
-23.9846 76.4204 -87.6111 30 29 36 0.511199 -0.477896 0.714347 
-24.7716 75.8166 -87.9966 23 22 27 -0.0489278 0.124026 0.991072 
-23.1057 76.4997 -87.7683 77 79 78 0.208667 0.195376 0.958273 
-27.9615 79.8653 -87.5782 113 108 111 0.43052 0.107981 0.896099 
-25.0973 78.6439 -87.3908 159 179 125 0.10186 0.308226 0.945844 
-25.0346 78.3493 -86.9832 114 133 87 0.186948 0.573002 0.797947 
-25.2404 78.5494 -87.3842 123 135 99 0.24504 0.0205206 0.969296 
-26.8443 79.8638 -87.5377 140 134 140 -0.560779 -0.169888 0.810349 
-25.1713 75.1116 -87.9968 133 136 130 -0.0222918 0.405186 0.913963 
-24.6249 76.6104 -87.6278 48 56 53 0.0178785 -0.0599456 0.998042 
-22.3504 80.6435 -87.35 100 92 100 0.131508 -0.00773578 0.991285 
-21.917 76.9146 -87.7263 76 73 75 -0.22712 -0.136272 0.964285 
-25.9418 79.4735 -87.3577 79 81 70 0.0871534 0.149235 0.984953 
-24.7662 79.2421 -87.4234 109 124 94 0.318595 0.0689206 0.945382 
-24.3992 75.9678 -87.6116 34 32 41 0.458253 0.0309085 0.888284 
-25.4412 76.437 -87.4268 47 56 49 0.0661587 -0.0466365 0.996719 
-26.1101 77.5976 -87.4836 107 110 102 0.179044 0.128962 0.975352 
-23.5419 79.2952 -87.5152 85 86 88 -0.0176329 -0.0446007 0.998849 
-23.9675 77.144 -87.1232 33 35 43 -0.129574 -0.772976 0.621062 
-21.971 76.6465 -87.9493 162 157 160 0.257491 0.251863 0.932879 
-25.5009 75.1623 -87.8652 70 73 68 0.0696354 0.154614 0.985518 
-25.0783 80.5247 -87.433 101 98 99 0.275518 0.0515811 0.959911 
-25.7614 76.8028 -87.4433 73 76 76 -0.142343 0.231145 0.96245 
-24.9209 79.5997 -87.4459 144 157 117 0.364291 0.184288 0.912869 
-22.6519 77.0923 -87.9315 129 129 126 0.480199 0.43431 0.762091 
-22.8236 76.8729 -87.813 144 145 143 0.519617 0.404875 0.752379 
-27.2913 78.494 -87.5249 56 53 51 0.0110965 0.294674 0.955533 
-26.9647 78.6071 -87.5605 122 117 119 0.00614604 0.296239 0.955094 
-27.1936 78.7184 -87.5905 100 96 93 -0.0135272 0.286532 0.957975 
-25.0135 79.2812 -87.5462 172 182 160 0.109094 0.393567 0.9128 
-24.4731 76.6752 -87.4578 91 100 93 0.00895451 -0.00895451 0.99992 
-27.6792 77.8465 -87.4834 136 135 132 0.174327 0.0557372 0.983109 
-27.127 75.9142 -87.4337 115 123 108 0.211359 0.00583866 0.977391 
-23.3146 75.7316 -87.5919 180 177 179 0.0528953 0.234953 0.970566 
-25.4498 76.8058 -84.0274 138 171 132 -0.679776 -0.283107 0.676577 
-21.5573 77.2399 -87.6702 110 104 110 0.160313 0.305553 0.938582 
-23.7585 81.1554 -87.745 112 105 110 0.0863375 -0.036065 0.995613 
-25.1645 76.6388 -83.679 111 121 103 0.114066 0.163127 0.979989 
-26.457 75.3786 -87.5589 133 134 122 0.215028 0.267745 0.939189 
-23.4384 81.1077 -87.5977 120 112 117 0.109946 0.0119743 0.993865 
-26.7391 75.2026 -87.5372 111 114 99 0.62225 0.132806 0.771471 
-27.9529 79.6454 -87.4796 131 139 124 0.349918 0.113009 0.929939 
-23.5393 81.0644 -87.6901 91 84 89 0.0596493 0.0553112 0.996686 
-25.0724 75.9341 -87.8508 55 58 60 0.0196676 -0.0424405 0.998905 
-25.8502 77.6185 -87.4433 130 135 129 0.499009 0.0285536 0.866127 
-25.9758 77.6529 -87.5388 141 140 133 0.247858 0.0329664 0.968235 
-22.1361 77.7497 -87.6734 133 129 132 0.0893852 0.283701 0.954738 
-24.5655 78.8096 -87.5056 107 130 85 0.170134 -0.0312491 0.984925 
-26.8028 77.3463 -87.5461 117 119 117 0.272532 0.0514921 0.960768 
-26.0514 75.1579 -87.6841 90 90 89 0.593544 -0.299172 0.747129 
-25.3786 77.5658 -87.3781 78 89 79 0.118231 0.0439144 0.992015 
-22.5792 78.7658 -87.3651 98 96 97 0.260028 0.0357385 0.964939 
-22.7785 77.4408 -87.3936 71 73 71 0.588334 0.167879 0.790999 
-27.1249 76.4801 -86.9272 99 101 96 0.600976 -0.21896 0.76869 
-27.7629 79.8467 -87.5329 110 105 107 0.303065 -0.160446 0.939366 
-21.4273 76.0914 -87.8195 114 107 111 0.00310338 0.0589643 0.998255 
-23.0465 80.9827 -87.4274 85 76 83 -0.170656 0.0859333 0.981576 
-27.6895 79.3483 -87.6828 152 149 146 0.20614 -0.134439 0.969243 
-23.3667 80.7983 -87.6564 108 100 105 0.10755 0.257861 0.960177 
-22.6561 81.0126 -87.3257 73 64 71 0.615967 -0.184943 0.765755 
-23.5097 79.2574 -87.4348 98 93 100 0.0380877 0.38219 0.923298 
-23.4057 77.2542 -86.8613 45 45 52 0.456852 0.523303 0.719334 
-23.418 79.4655 -87.5494 146 140 147 -0.108685 0.537628 0.836148 
-24.6946 76.9481 -86.8901 50 54 54 0.0059839 0.250127 0.968195 
-24.9694 78.2643 -82.9021 126 149 117 0.12726 -0.453274 0.88224 
-24.2116 76.5642 -87.4081 84 89 88 -0.0601463 -0.0623334 0.996241 
-26.3637 77.8003 -87.4407 127 131 126 0.506611 -0.0013367 0.862174 
-26.741 79.1074 -87.4013 81 77 80 0.167425 0.350327 0.921542 
-26.6589 79.3186 -87.416 113 107 113 0.170546 0.253804 0.952102 
-21.5231 76.5688 -87.6063 88 80 84 0.701544 -0.00415115 0.712614 
-23.3951 77.3345 -87.0985 56 56 62 0.620749 0.185458 0.761759 
-23.3678 80.793 -87.6822 107 99 104 0.0115798 0.379559 0.925095 
-27.2645 76.5744 -87.6155 104 102 100 0.0968634 0.317128 0.943423 
-24.3766 79.3647 -87.5164 105 106 102 0.251006 0.0769416 0.964923 
-23.5747 76.2818 -87.7789 131 131 133 0.121641 0.303434 0.945056 
-25.9863 77.7157 -87.4599 141 141 133 0.159945 0.236613 0.958349 
-23.3129 80.9925 -87.513 110 102 108 -0.0268509 -0.187957 0.98181 
-25.5398 79.9752 -87.5872 89 89 84 0.33443 -0.331403 0.882229 
-27.0172 79.0054 -87.5058 75 70 70 -0.0773007 0.501752 0.861551 
-26.7584 75.8101 -87.492 103 106 97 0.0980292 0.238071 0.966288 
-24.816 76.8894 -87.3635 49 60 52 0.110997 -0.51174 0.85194 
-26.0837 77.4144 -87.5207 59 65 67 0.0996093 0.0032132 0.995021 
-24.8455 75.6541 -87.8977 102 102 104 -0.139536 0.203543 0.969072 
-26.7509 75.8603 -87.524 101 102 96 0.165132 0.152527 0.974406 
-25.8573 77.1591 -83.4147 83 91 76 0.35169 0.0645424 0.933889 
-24.197 76.9706 -87.3572 59 64 62 -0.0246296 -0.0738887 0.996962 
-23.3576 78.2614 -87.3504 40 35 43 0.165492 0.62401 0.763691 
-25.145 77.4204 -86.7846 85 97 82 0.221544 0.0154014 0.975029 
-24.8852 80.6448 -87.5347 73 71 73 0.269685 -0.263977 0.92606 
-23.7525 79.9392 -87.4124 118 118 116 0.1087 0.236582 0.965512 
-26.541 75.7015 -87.5334 154 154 146 0.0910319 0.131228 0.987164 
-22.0896 76.7591 -87.924 141 136 138 -0.181139 -0.123674 0.97565 
-25.6599 78.2231 -87.3654 129 143 116 0.125245 -0.0166255 0.991986 
-22.8162 79.513 -87.392 96 90 97 0.183805 -0.00342494 0.982957 
-26.1744 74.7479 -87.9009 83 85 78 0.611529 0.181476 0.770129 
-26.3704 75.8074 -87.5832 152 154 148 0.223046 0.025048 0.974486 
-26.4609 75.5851 -87.4736 154 155 146 0.161374 0.121954 0.979329 
-23.7105 79.4342 -87.4613 99 94 99 0.0239717 0.156387 0.987405 
-22.55 80.493 -87.4304 115 105 114 0.0971227 -0.113505 0.988779 
-25.0093 74.9809 -87.8533 100 100 92 -0.162585 0.541454 0.82486 
-26.9221 77.0646 -87.6544 61 61 63 0.604914 -0.0495831 0.794746 
-24.9219 76.8785 -87.5331 35 44 40 0.0592908 -0.0463546 0.997164 
-27.5734 79.7825 -87.6539 66 64 64 0.381857 0.08833 0.919991 
-23.261 79.5424 -87.5155 106 100 107 -0.154545 0.504847 0.849262 
-21.6031 76.5892 -87.8501 56 51 55 -0.18736 -0.0869449 0.978436 
-22.0656 77.6526 -87.7159 119 115 118 0.12536 0.139965 0.982189 
-26.2694 77.4792 -82.6326 84 118 75 0.490752 -0.0801515 0.867605 
-24.7628 78.534 -87.2582 105 129 82 0.27217 -0.0283254 0.961832 
-24.9434 75.8031 -88.0044 50 44 53 0.601878 -0.500722 0.622109 
-21.3118 76.6844 -87.4783 128 120 128 -0.113979 0.102229 0.98821 
-26.7505 79.1455 -87.5625 67 66 64 0.283652 0.213787 0.934793 
-24.1047 79.5779 -87.5124 120 118 116 0.104143 -0.0230212 0.994296 
-24.2925 78.2869 -87.1805 47 58 43 0.196105 0.0104435 0.980527 
-24.2133 79.485 -87.5887 88 86 84 0.143916 -0.00780937 0.989559 
-24.0165 79.4296 -87.5186 146 143 144 0.104588 -0.0275231 0.994135 
-24.1919 79.3521 -87.5982 109 107 107 0.0879511 -0.029317 0.995693 
-25.2191 75.8513 -87.942 67 70 72 -0.00111456 0.150466 0.988615 
-25.6429 76.0929 -87.4682 76 76 77 -0.102381 0.0075439 0.994717 
-22.9775 76.6726 -87.7402 109 108 106 0.167151 0.0125079 0.985852 
-22.8344 81.4069 -87.4092 66 58 66 0.232113 -0.0976652 0.967773 
-22.993 81.3662 -87.3754 83 75 82 0.232113 -0.0976652 0.967773 
-24.631 76.8746 -87.4622 79 80 86 0.620679 -0.322494 0.714672 
-26.6027 75.335 -87.4105 138 141 124 0.0526687 0.425401 0.903471 
-22.7484 77.8508 -87.5214 70 70 70 0.25074 -0.0330243 0.967491 
-25.6092 75.51 -87.7687 97 98 98 0.221764 0.0323656 0.974563 
-27.1572 75.6444 -87.1613 118 118 110 -0.133114 0.665569 0.734369 
-23.8343 76.4504 -87.6978 65 64 69 0.511199 -0.477896 0.714347 
-22.9753 81.3942 -87.2614 98 89 97 0.193759 -0.451119 0.871177 
-27.2717 77.8849 -87.2773 76 76 74 0.216185 0.0322486 0.97582 
