ply
format ascii 1.0
comment Created by CloudCompare v2.11 alpha (Anoia)
comment Created 15/10/2019 14:55
obj_info Generated by CloudCompare!
element vertex 730
property float x
property float y
property float z
property uchar red
property uchar green
property uchar blue
property float nx
property float ny
property float nz
end_header
-9.3478 14.5687 -87.4632 107 116 96 0.490133 -0.434399 0.75569 
-6.97261 12.3328 -90.1729 50 54 57 0.189655 0.0341614 0.981256 
-12.1569 16.1426 -90.2923 129 124 123 0.105863 0.275766 0.955378 
-13.7436 12.815 -90.2641 143 150 131 0.35881 0.0538872 0.931854 
-8.93152 11.4666 -89.9046 69 81 61 0.243372 0.00356154 0.969926 
-14.0398 15.8183 -90.0215 135 149 117 0.13774 0.247933 0.958935 
-12.9983 17.4403 -90.2494 142 138 125 0.0182694 -0.0848992 0.996222 
-13.2725 11.5204 -90.2406 87 97 79 0.226641 0.439774 0.869041 
-5.59504 15.8495 -89.6971 88 92 84 0.395638 0.463461 0.79289 
-11.4973 17.2171 -89.9564 116 113 117 0.121267 -0.0977202 0.987798 
-8.54974 11.0341 -90.1842 119 134 111 0.122638 0.275607 0.953415 
-10.1198 13.4032 -89.9339 97 108 91 -0.145167 -0.120769 0.982009 
-8.77737 16.0074 -89.6076 151 154 143 0.106892 0.251133 0.962032 
-9.94539 15.0188 -89.6454 30 37 33 -0.432146 0.71362 0.551358 
-17.0349 17.9222 -89.3985 115 106 118 0.220631 0.0524152 0.973948 
-13.4932 10.8847 -90.2911 126 131 115 0.209592 -0.0128799 0.977704 
-13.747 13.0028 -90.336 150 157 135 0.298271 0.0495002 0.953197 
-5.32705 11.6372 -90.0642 110 118 102 0.093594 0.548605 0.830827 
-12.6537 17.7523 -90.1718 112 105 106 0.146552 0.249535 0.957212 
-14.8333 14.7527 -90.1566 86 88 73 0.35447 0.0322246 0.934512 
-14.5621 10.9163 -89.9115 122 119 120 0.308962 -0.0795219 0.947744 
-9.99479 10.9522 -90.3598 87 94 77 -0.22478 0.161684 0.960902 
-11.3192 18.0572 -90.0909 48 42 49 -0.114795 0.388643 0.914209 
-12.0967 18.1542 -89.8648 74 71 74 0.160024 -0.0310838 0.986624 
-7.75326 15.8512 -89.9325 70 75 63 0.102359 0.375315 0.921228 
-15.7058 17.8301 -89.8916 122 126 111 0.0158801 -0.274848 0.961357 
-9.20048 13.5684 -87.5112 122 141 115 0.0921917 0.686316 0.721437 
-17.2622 16.844 -89.1685 104 98 111 0.305797 0.00866632 0.952057 
-11.8631 12.7051 -90.3905 131 138 112 0.103216 0.333776 0.936985 
-9.41796 17.6074 -89.7448 126 122 121 -0.0649144 0.688092 0.722713 
-15.3812 10.9328 -89.5027 84 78 90 0.317372 0.0501114 0.946976 
-12.0391 16.2214 -90.117 112 112 108 -0.165604 -0.109176 0.980131 
-16.1004 17.263 -89.559 114 118 109 0.591274 0.232453 0.772244 
-9.16794 16.618 -89.6956 114 117 102 -0.0953302 0.658511 0.746508 
-11.2664 16.4741 -89.6232 121 115 119 0.0367439 0.47767 0.87777 
-16.51 14.2503 -89.3631 106 100 111 0.50566 -0.132608 0.852481 
-12.3509 13.7243 -90.2378 171 179 148 0.0177028 0.048943 0.998645 
-15.9806 13.9823 -89.4881 201 195 206 0.26742 0.127782 0.95507 
-16.0389 14.1524 -89.4739 133 129 138 0.264971 0.127871 0.95574 
-9.40951 14.3787 -89.6825 58 60 60 0.00966385 0.0955647 0.995376 
-13.1919 13.3926 -90.3277 156 155 141 0.150162 0.097305 0.983861 
-8.54869 17.3849 -89.5952 103 98 100 0.0980712 0.496041 0.862743 
-13.9169 17.4124 -90.166 145 147 125 0.0243811 0.179956 0.983372 
-8.71055 10.9569 -90.213 117 123 106 0.186543 0.391886 0.900903 
-10.6451 18.1337 -90.1266 95 87 96 -0.0613973 0.606834 0.792454 
-9.30289 12.5585 -87.3034 104 125 90 0.00692856 0.655442 0.755214 
-16.1084 17.1559 -89.7821 112 118 105 0.4143 0.0983788 0.904808 
-15.2794 17.696 -89.9862 137 140 120 0.531176 0.0602653 0.845116 
-8.38386 12.7467 -87.2969 115 139 105 0.18945 0.436175 0.879693 
-13.8656 13.8697 -90.1912 157 156 139 0.00106697 -0.0949601 0.99548 
-9.01571 17.0501 -89.6956 88 90 77 -0.239297 0.520278 0.819785 
-13.3931 17.7759 -90.116 132 131 111 0.0908875 -0.259861 0.961359 
-16.3211 14.4226 -89.4433 134 127 138 0.270754 0.157603 0.94966 
-14.4726 17.2274 -90.1202 121 126 105 0.337331 0.0164244 0.941243 
-9.11316 17.8318 -89.5451 63 71 67 0.07294 -0.121567 0.9899 
-16.1625 16.0123 -89.6523 57 58 66 0.310937 -0.0162336 0.950292 
-17.1724 18.0936 -89.2773 111 102 114 0.303655 -0.0470093 0.951622 
-13.7576 17.3495 -90.2494 137 138 117 0.257092 -0.0381333 0.965634 
-9.29901 13.4048 -87.2247 77 93 72 0.48742 0.080066 0.869489 
-9.75202 14.3242 -87.5206 78 94 70 -0.0671185 -0.58693 0.806851 
-15.7289 13.6822 -89.6792 92 85 96 0.234322 0.183441 0.954695 
-11.5657 14.0246 -90.4021 107 118 96 0.27479 0.179092 0.944678 
-15.0931 16.1599 -89.4596 53 73 53 0.279349 -0.311525 0.908249 
-7.56088 17.6358 -89.8808 97 93 100 0.082316 0.461807 0.883153 
-9.81638 14.2927 -89.7092 99 106 100 -0.0256754 0.0277294 0.999286 
-7.9523 15.5703 -89.3969 75 92 72 -0.115485 0.0164979 0.993172 
-15.44 16.3172 -87.7822 93 131 89 0.503534 0.126246 0.854702 
-15.6523 14.4819 -89.74 124 120 127 0.221217 0.10492 0.969564 
-14.1437 11.3498 -89.9883 138 141 129 0.35969 0.0703453 0.930416 
-9.08434 14.973 -90.0673 43 54 51 -0.134836 0.284356 0.94919 
-15.254 16.7468 -89.3725 84 115 76 0.409841 0.409841 0.814899 
-16.2852 17.413 -89.7231 91 88 88 0.21238 0.267904 0.939746 
-5.11013 12.6785 -90.2454 42 43 49 0.0713693 -0.0559975 0.995877 
-7.1012 14.4469 -87.6752 101 121 95 -0.296406 0.308204 0.903966 
-5.78369 12.4765 -89.9671 111 108 113 -0.0944218 0.877981 0.46929 
-16.8926 15.4894 -89.3177 77 73 82 0.194454 0.375944 0.90601 
-8.50183 13.6666 -88.3828 65 76 60 -0.0608841 0.81698 0.573443 
-13.4497 10.8522 -90.18 115 122 104 0.0906365 0.128304 0.987585 
-13.4581 17.4583 -90.3222 155 154 136 0.189843 0.289614 0.938128 
-8.46093 16.014 -89.5981 99 104 94 -0.00944344 0.511295 0.859353 
-5.37587 12.1604 -90.2039 71 70 70 0.365654 0.293426 0.883288 
-11.9442 11.6631 -90.4353 156 163 137 0.202855 0.0320297 0.978685 
-12.295 12.7171 -90.1852 117 125 100 -0.0251377 0.228633 0.973188 
-10.9382 13.0227 -90.2147 120 131 109 -0.0777181 0.51294 0.854899 
-14.0645 11.8107 -90.1258 104 116 95 0.376787 0.0850808 0.922384 
-11.389 15.4106 -90.0821 90 85 86 0.010932 0.268442 0.963234 
-11.2536 14.0418 -90.4477 104 114 94 0.256328 0.435303 0.863022 
-6.60059 11.478 -89.9698 82 82 85 -0.0610766 0.127915 0.989903 
-9.26331 13.2861 -87.5157 125 146 111 -0.0565684 0.87612 0.478762 
-6.86887 17.722 -90.0047 138 140 141 0.0447805 0.0239524 0.99871 
-13.4502 12.0967 -90.3594 140 147 130 0.307442 0.1395 0.941286 
-10.6806 17.1686 -89.8975 88 82 87 0.0373849 0.346778 0.937202 
-16.4548 18.1266 -89.6693 58 57 60 0.347795 0.070088 0.934947 
-16.2931 14.7387 -89.285 126 119 131 0.210242 0.366837 0.906217 
-10.5694 15.377 -88.4671 93 98 89 -0.0137477 -0.0729687 0.997239 
-10.3325 13.8278 -88.2181 100 115 92 0.175723 0.533178 0.827552 
-10.4331 18.4587 -89.7114 42 41 45 0.103636 -0.597003 0.795517 
-11.7754 17.4977 -89.9415 98 94 96 0.0465431 0.194526 0.979792 
-15.0404 12.7166 -89.8636 143 143 137 0.282552 0.305976 0.909144 
-15.1456 16.1466 -89.3645 52 76 49 0.620847 -0.499706 0.604022 
-17.1328 15.9718 -89.1061 90 84 97 0.347617 0.0374755 0.936887 
-13.0549 12.4354 -90.4753 136 139 122 0.237725 0.0155298 0.971208 
-9.68442 15.6076 -89.639 113 120 107 0.327359 0.0556381 0.94326 
-5.38301 16.7846 -89.9944 118 116 114 0.219231 -0.626597 0.747873 
-14.1631 16.4225 -90.1852 104 112 92 0.229343 0.015448 0.973223 
-11.7743 16.102 -89.9974 147 142 143 -0.168269 -0.0883716 0.981772 
-13.2204 11.643 -90.2802 107 122 101 0.0041191 0.613745 0.789493 
-6.21506 14.359 -89.9393 65 72 65 -0.0274093 -0.101963 0.994411 
-5.9779 15.9679 -90.3153 114 112 110 0.298612 0.0847589 0.950603 
-10.9069 15.7827 -89.9267 85 78 85 0.0390572 0.443097 0.895622 
-10.2568 18.4784 -89.6883 59 59 62 0.114063 -0.518339 0.847534 
-11.9972 15.9387 -90.0582 94 92 86 -0.276908 -0.070184 0.95833 
-7.72807 15.8482 -89.6844 55 64 51 0.277171 0.430304 0.859078 
-7.46551 14.2413 -87.9149 101 122 96 -0.0654064 0.494027 0.866983 
-14.764 17.5037 -90.2877 140 142 121 0.167127 0.440342 0.882138 
-7.93036 17.7276 -89.6607 97 91 99 -0.0617213 0.667451 0.742091 
-13.8662 15.1349 -90.16 163 162 145 0.120095 0.430931 0.894358 
-9.67809 16.5994 -89.7408 120 117 116 0.201336 0.341272 0.918149 
-14.8303 12.8297 -89.8369 141 146 130 0.234158 0.410149 0.881447 
-7.53857 15.364 -88.4453 72 93 71 -0.170297 0.905867 0.38782 
-12.7546 14.219 -90.3281 149 153 127 0.0655518 0.00312152 0.997844 
-13.4315 17.4 -90.2369 130 132 115 0.0316859 -0.0906873 0.995375 
-14.9667 13.9682 -90.0381 134 133 120 0.277413 0.023426 0.960465 
-14.8757 14.1924 -90.1128 136 135 121 0.289874 0.026126 0.956708 
-16.1676 16.3277 -89.4313 91 106 90 -0.0439062 0.64443 0.763402 
-7.86694 15.9365 -86.7205 100 123 96 -0.152585 0.732709 0.663215 
-5.24673 11.8625 -90.669 71 71 68 -0.260897 0.873174 0.411704 
-10.2772 16.594 -89.5624 112 106 112 -0.212307 0.751597 0.624523 
-10.4537 16.8112 -89.6706 117 109 117 -0.23386 0.679606 0.695302 
-9.96718 16.7605 -89.6244 207 201 206 -0.17909 0.727076 0.662787 
-15.7742 14.6682 -89.6797 109 104 113 0.480488 -0.0915886 0.872206 
-12.3601 13.0929 -90.2137 161 169 142 -0.0641433 0.438085 0.896642 
-12.62 14.0077 -90.2955 129 135 108 0.0528831 0.00933231 0.998557 
-11.1977 15.6122 -89.9883 114 108 113 -0.231898 -0.168292 0.958071 
-12.8396 18.3647 -89.9085 146 140 135 -0.394758 0.498727 0.771646 
-8.00538 11.2803 -89.9705 70 65 68 0.444722 0.0615769 0.893549 
-10.7798 11.0132 -90.4097 150 159 131 0.0522448 0.302001 0.951875 
-10.2975 16.8771 -89.728 104 97 104 -0.332991 0.773761 0.538898 
-10.4759 18.294 -89.8069 72 66 71 0.54639 -0.0547794 0.835738 
-10.338 16.7208 -89.635 90 83 90 -0.30629 0.74568 0.591733 
-15.1655 16.7388 -89.6936 52 74 44 0.335847 0.538319 0.772929 
-12.0358 17.1437 -90.1043 94 94 94 -0.00951511 -0.0771781 0.996972 
-6.76129 16.6289 -90.0149 132 128 132 0.131074 0.309443 0.941841 
-13.2147 18.1337 -90.0521 112 113 103 0.0283927 -0.272816 0.961647 
-12.5703 14.4185 -90.2453 150 154 127 0.0322246 -0.0322246 0.998961 
-12.0164 13.7902 -90.2804 152 164 131 0.111776 0.0508072 0.992434 
-10.7975 13.5109 -90.1288 122 133 109 0.00692256 0.668719 0.743483 
-9.3966 10.9271 -90.0883 99 107 90 -0.111659 0.102256 0.988472 
-13.5767 11.4743 -90.2493 139 145 131 0.283276 0.0259773 0.958686 
-12.7565 12.0388 -90.3311 133 139 122 0.0548279 0.299641 0.952475 
-7.80452 14.006 -87.8232 75 90 69 -0.297559 0.218586 0.929343 
-10.2944 18.1563 -89.7742 73 72 74 -0.0336016 -0.0812941 0.996124 
-9.54765 16.8643 -89.8331 72 70 66 0.0203441 0.503176 0.863944 
-5.69813 18.1589 -89.8825 136 131 132 0.0454387 0.50258 0.863336 
-14.2091 15.6527 -89.979 126 132 110 0.217234 0.313783 0.92431 
-5.5747 16.6462 -90.1926 149 145 143 -0.135408 0.186028 0.973169 
-10.9614 12.2001 -90.4748 89 91 85 -0.048928 0.384812 0.921697 
-9.3027 15.3171 -87.0788 84 108 75 0.49552 -0.413751 0.763722 
-12.6205 14.9721 -90.2585 156 159 133 0.143284 0.0214362 0.989449 
-7.05388 11.1465 -90.1273 58 57 61 -0.194937 0.051425 0.979467 
-16.361 16.8567 -89.2168 105 107 106 0.172901 0.477325 0.861549 
-10.5741 12.0145 -90.2809 48 55 50 -0.0548382 -0.00724278 0.998469 
-8.7896 12.9418 -87.6221 94 118 86 0.0379045 0.596645 0.80161 
-8.00422 15.7849 -90.0268 72 72 70 0.394361 0.0975596 0.913762 
-7.40335 13.5077 -90.0968 54 65 51 -0.122541 0.589081 0.798729 
-5.21986 11.1435 -90.1302 118 120 115 0.56157 0.311983 0.766359 
-7.29442 14.6891 -89.7103 72 85 66 0.152293 -0.399948 0.903797 
-5.24366 14.1696 -89.7579 94 102 99 0.227112 -0.725193 0.650011 
-14.4187 16.5625 -90.3004 121 127 105 0.184381 0.370192 0.910473 
-10.7912 12.565 -90.4007 66 75 63 0.169934 -0.428466 0.887434 
-8.1939 15.3178 -86.6112 118 137 112 0.501177 -0.129289 0.855632 
-13.0872 14.8914 -90.2585 126 127 109 0.239831 -0.140229 0.960634 
-13.8525 13.0342 -90.1947 122 130 110 0.439755 -0.0785769 0.894674 
-17.3324 17.0647 -89.1543 108 100 111 0.430282 0.189442 0.882592 
-11.3372 13.0233 -90.3399 140 147 125 -0.0545003 0.285176 0.956924 
-13.3949 13.7506 -90.2038 161 160 144 0.186733 0.184121 0.965003 
-11.5226 16.7129 -89.9835 120 117 119 -0.218975 0.300914 0.928171 
-13.5856 13.8181 -90.1645 167 166 149 0.177349 0.233353 0.956082 
-16.6255 15.1113 -89.3711 63 58 70 0.275196 -0.00606159 0.961369 
-13.4443 15.1682 -90.1709 123 121 103 0.0772933 -0.0424569 0.996104 
-13.2385 13.8282 -90.232 154 152 136 0.189342 0.181507 0.96499 
-5.71365 17.7945 -89.8729 116 115 116 -0.0179531 0.581406 0.813416 
-8.10134 16.2648 -89.7284 91 91 85 0.0144357 0.42126 0.906825 
-10.5966 11.7454 -90.4758 98 112 86 -0.0464158 0.277241 0.959679 
-13.4996 10.9605 -90.1871 135 140 122 0.0176339 0.516807 0.85592 
-13.335 13.5638 -90.2598 162 160 145 0.189773 0.105429 0.976151 
-13.4623 13.9161 -90.2101 136 135 117 0.177349 0.233353 0.956082 
-6.19847 12.3167 -90.1161 32 33 43 0.0750622 -0.335805 0.938936 
-9.56445 11.6246 -90.1755 50 55 55 -0.168754 -0.112092 0.979264 
-7.00221 12.6518 -89.7064 75 88 71 0.28886 0.0572631 0.955657 
-8.28945 14.1704 -89.146 59 73 59 -0.129816 0.334789 0.933308 
-5.31394 15.1542 -89.4633 96 121 86 0.502994 0.214266 0.83731 
-6.10485 12.1814 -89.9104 59 59 65 -0.332967 0.135653 0.93313 
-5.41665 17.603 -90.0399 120 118 121 0.0334751 0.44321 0.895793 
-11.3124 13.7771 -90.311 90 101 79 0.14756 0.296474 0.943573 
-13.9747 17.616 -90.1401 147 147 127 -0.114666 0.280733 0.952912 
-9.00571 13.3334 -87.7054 95 114 86 0.525978 0.136256 0.839513 
-9.07031 16.61 -89.684 84 89 73 0.154184 0.269488 0.950581 
-9.5822 13.9765 -89.8825 85 87 82 0.0271256 0.00301395 0.999627 
-11.7599 18.4193 -89.7348 51 45 53 0.0939431 -0.139131 0.985808 
-8.9203 15.3503 -89.9493 90 102 84 0.251877 0.0279864 0.967354 
-8.60099 16.9566 -89.5861 100 102 89 0.178293 0.215272 0.96014 
-6.86804 16.862 -90.192 98 102 102 0.0325 0.225092 0.973795 
-12.0268 12.3339 -90.3629 92 104 74 0.0914539 -0.0407686 0.994974 
-16.4452 14.8896 -89.3273 121 113 125 0.204703 0.234528 0.950312 
-13.2529 13.2037 -90.364 126 127 116 0.314667 0.0188048 0.949016 
-10.7375 12.5022 -90.1951 73 82 68 0.0614449 -0.0441972 0.997131 
-12.8335 12.955 -90.1561 132 134 121 0.124026 -0.0489278 0.991072 
-15.345 16.6593 -89.6333 75 100 67 0.201238 0.457631 0.86607 
-13.7278 14.5889 -90.2032 138 136 119 0.0599881 0.105262 0.992634 
-13.2802 15.5628 -90.2922 145 146 125 0.220303 0.0809022 0.972071 
-13.575 14.5107 -90.3085 125 123 105 0.266487 0.0384237 0.963072 
-7.30099 15.8306 -89.7775 61 64 59 0.127095 0.455542 0.881095 
-12.3667 15.304 -90.2554 144 146 125 -0.0496922 -0.0872373 0.994947 
-13.9199 14.3648 -90.1471 174 171 155 0.138472 0.163422 0.97679 
-6.30335 16.715 -90.3267 79 84 82 0.143805 0.364399 0.920073 
-13.4371 14.8147 -90.2609 171 169 151 0.192546 0.161532 0.967901 
-12.9359 15.2841 -90.3147 152 152 130 0.214727 0.0249131 0.976356 
-14.024 12.2637 -90.1227 110 132 102 0.258186 0.124506 0.958039 
-16.1969 17.2166 -89.6979 114 117 109 0.568426 0.375128 0.732237 
-8.26852 11.0429 -90.1377 111 122 103 0.132914 0.294023 0.946512 
-6.34722 14.6811 -89.8194 88 97 86 0.0353785 0.381302 0.923773 
-8.73058 13.7889 -88.6267 99 110 93 -0.0493279 0.807569 0.587707 
-13.9177 12.9847 -90.1439 104 114 94 0.364101 0.0404557 0.93048 
-16.7818 17.4838 -89.5209 93 87 94 0.437259 0.10826 0.892796 
-14.5604 11.297 -89.7585 106 104 105 0.168577 0.369736 0.913716 
-11.9271 14.0059 -90.3071 101 111 88 0.0718487 0.522664 0.849506 
-11.4654 11.808 -90.3853 124 135 110 -0.0989484 -0.0184849 0.994921 
-16.3874 14.9119 -89.4494 105 97 109 0.263116 0.00360432 0.964758 
-11.9106 13.5131 -90.2668 79 91 64 0.0554343 0.112 0.992161 
-11.9298 12.8714 -90.3927 137 146 118 0.144344 0.0715851 0.986935 
-13.7014 14.9117 -90.2263 121 118 102 0.175544 0.145234 0.9737 
-12.0745 11.5263 -90.5326 120 130 107 0.120775 0.0678642 0.990357 
-8.22962 13.4341 -88.0712 67 85 63 -0.106383 0.878012 0.466666 
-10.781 17.0177 -89.7291 87 83 88 -0.29519 0.327824 0.897438 
-7.59042 13.6465 -87.7447 89 107 83 -0.169192 0.266646 0.948828 
-15.116 14.9802 -89.8055 126 136 115 0.26284 0.0232277 0.96456 
-5.43518 14.2084 -89.6254 79 86 78 -0.424452 0.37994 0.821879 
-8.25221 12.8105 -87.347 68 93 59 0.205657 0.433506 0.87737 
-10.6651 13.261 -90.0721 128 140 113 -0.00677796 0.535459 0.844534 
-16.7606 14.5695 -89.2205 121 110 126 0.451947 -0.0119282 0.891965 
-8.24476 14.0048 -89.1771 85 100 83 -0.0227728 0.23372 0.972037 
-8.8035 15.9611 -89.6564 151 153 143 -0.0115141 0.367171 0.930082 
-11.307 17.5119 -89.9339 69 65 71 -0.0588494 0.450266 0.890953 
-14.8849 13.1736 -89.8329 133 138 128 0.252369 0.0059803 0.967613 
-5.59971 18.2087 -89.908 122 118 116 0.101169 0.491597 0.864926 
-14.8945 11.4831 -89.6194 96 91 97 0.275518 -0.0515811 0.959911 
-10.9816 13.0735 -90.1115 119 130 107 -0.117266 -0.280648 0.95262 
-8.48841 15.2345 -90.0598 25 36 30 0.228124 0.110876 0.967298 
-12.5171 12.1156 -90.3859 120 123 104 0.0354944 0.067762 0.99707 
-8.87953 13.3298 -87.8616 116 135 110 -0.032169 0.801428 0.597225 
-12.9252 12.7379 -90.1855 89 92 78 0.156721 -0.0285987 0.987229 
-13.2176 14.1435 -90.226 167 165 148 0.159027 0.22737 0.960736 
-9.29886 15.5612 -86.3382 112 134 106 0.258158 0.328167 0.908659 
-13.5014 14.4068 -90.2251 147 145 127 0.168939 0.23811 0.956433 
-7.06428 15.2077 -89.7031 56 63 61 -0.0785391 0.561198 0.823947 
-10.7407 16.9527 -89.8729 78 70 78 -0.0342471 0.510967 0.858918 
-13.8356 10.8251 -89.9965 92 101 80 -0.0506481 0.466784 0.88292 
-7.29277 12.3987 -87.0982 70 83 66 0.0706735 0.469771 0.879955 
-15.2937 16.0848 -89.2751 59 85 55 0.609322 -0.541807 0.57894 
-16.957 18.7746 -89.5061 102 96 105 0.368287 0.0567611 0.927978 
-14.9115 11.7477 -89.705 109 106 109 0.0692029 0.322512 0.944032 
-16.2038 17.8525 -89.6015 82 84 78 0.179556 -0.02201 0.983502 
-10.0496 15.1847 -89.6771 41 45 42 0.318104 0.0528027 0.946584 
-16.177 18.8604 -90.0847 139 141 124 -0.0819577 0.24083 0.967101 
-15.6456 18.268 -89.8781 112 113 97 0.312608 0.0578904 0.948116 
-13.9755 18.6046 -90.12 131 130 110 0.210066 0.0152562 0.977568 
-11.5621 17.2451 -89.9081 163 156 161 0.157663 0.183299 0.970332 
-17.1093 17.3846 -89.289 145 140 151 0.250728 0.0230136 0.967784 
-7.75421 17.9995 -89.8336 100 95 100 0.00686972 0.594918 0.803757 
-12.9032 12.7341 -90.266 126 129 111 0.0984434 -0.0387137 0.994389 
-16.8125 15.9967 -89.3928 139 138 141 0.343 -0.0754865 0.936297 
-14.8858 12.3437 -89.8637 138 142 130 0.306008 0.2625 0.915124 
-8.42761 16.9469 -89.7923 110 105 103 0.0908408 0.309385 0.946588 
-12.6964 16.8085 -90.1213 86 89 80 0.0550931 -0.0529326 0.997077 
-11.9419 11.7535 -90.4392 119 126 106 0.182356 0.0411772 0.98237 
-11.0237 12.2848 -90.4934 95 104 91 0.0458441 0.368062 0.92867 
-6.85563 15.8306 -90.1396 50 64 54 0.0441912 -0.0635922 0.996997 
-11.0758 13.5306 -90.2964 119 128 108 0.263311 0.292088 0.91943 
-8.99953 18.2501 -89.8197 121 120 118 0.0992935 0.443325 0.890845 
-9.41972 12.0955 -87.2304 129 147 113 0.480645 -0.0826766 0.873009 
-10.8072 17.2045 -89.9061 76 73 78 -0.0886303 -0.1359 0.98675 
-7.14969 15.4721 -89.7667 70 78 70 -0.21371 0.232766 0.948761 
-8.98674 13.6982 -87.6353 65 79 65 0.485162 0.0829697 0.870479 
-15.1911 17.5457 -90.0231 117 123 104 0.325224 -0.0138126 0.945536 
-8.84301 16.3871 -89.6193 121 128 112 0.20024 0.153733 0.967611 
-8.50545 16.5307 -89.7727 142 146 130 0.228138 0.0920115 0.969271 
-10.1291 17.4154 -89.9113 93 86 91 0.477577 0.0311169 0.878039 
-5.8331 18.0416 -89.8619 130 126 124 0.374026 0.550422 0.746418 
-10.3137 16.092 -89.5399 93 91 91 -0.136171 0.260443 0.955838 
-13.9983 12.6499 -90.2204 98 113 87 0.250288 0.118012 0.960952 
-15.3639 13.4481 -89.9044 128 122 128 0.319622 0.244417 0.915479 
-14.9397 10.7143 -89.538 81 76 85 0.296835 0.0902274 0.950657 
-9.13001 12.3569 -89.8355 46 55 52 0.0331372 -0.0652054 0.997321 
-10.3557 11.8674 -90.2664 101 109 97 -0.0460106 -0.00102246 0.99894 
-5.58387 13.1926 -89.8947 46 46 52 -0.125997 0.116397 0.985178 
-8.43874 17.4334 -89.83 81 83 82 0.286225 0.0466534 0.957026 
-8.25053 13.7466 -88.3873 75 90 72 -0.0956867 0.849755 0.518422 
-16.212 18.0972 -89.7943 134 134 126 0.0586702 0.0785959 0.995179 
-16.6923 16.6286 -89.4582 61 60 70 0.241595 0.190307 0.951533 
-8.18161 15.8346 -89.6821 81 91 74 0.130743 -0.0212318 0.991189 
-10.329 16.7571 -89.484 90 90 91 0.0867303 0.342918 0.935353 
-14.2593 16.9655 -90.1137 144 147 126 0.143428 0.243432 0.959255 
-7.33334 13.7787 -89.1481 97 121 88 0.316686 0.198456 0.927537 
-8.15291 17.6402 -89.4933 115 110 112 0.0607984 0.56698 0.821485 
-13.7898 17.1919 -90.2005 151 152 131 0.126666 0.291998 0.947994 
-11.8746 13.9275 -90.4437 83 93 70 0.121684 0.555643 0.822468 
-15.3777 15.9275 -89.7598 51 57 50 0.371074 0.073679 0.925676 
-8.4336 16.6618 -89.7366 127 124 115 0.0285536 0.499009 0.866127 
-11.2022 16.8585 -90.1127 106 102 102 0.25113 -0.207217 0.945513 
-10.588 16.0168 -89.8475 92 84 93 0.125657 0.368685 0.921022 
-8.38786 17.9043 -89.797 155 147 152 0.0427944 0.517674 0.854507 
-7.30765 13.6064 -90.195 116 127 113 -0.0582554 0.601025 0.797104 
-7.40581 15.4293 -89.3255 69 82 72 0.341667 0.239894 0.908688 
-12.6486 11.9251 -90.3116 130 136 114 -0.0481578 0.104155 0.993394 
-15.0415 18.3617 -90.0557 163 163 145 0.0372721 -0.0543108 0.997828 
-14.8361 17.0167 -90.0007 122 127 103 0.1874 0.192642 0.963208 
-14.0841 18.4628 -90.1568 146 143 124 0.461699 -0.0850865 0.882946 
-4.22981 12.2905 -90.2696 126 121 128 -0.148759 0.446277 0.882444 
-14.9457 17.1087 -89.9989 121 127 103 -0.0411049 0.650591 0.758315 
-10.1572 11.0059 -90.3385 151 159 135 0.394201 -0.45856 0.796447 
-12.2819 17.6036 -90.1394 143 138 136 0.30087 0.0365073 0.952966 
-14.7126 10.7819 -89.7017 121 115 121 0.163148 0.207524 0.964529 
-12.4601 15.2585 -90.2622 150 152 129 -0.164914 -0.125235 0.978325 
-15.5173 16.9675 -89.5543 114 124 102 -0.0768569 0.685911 0.723615 
-9.09423 12.1877 -89.8618 36 43 42 -0.0740099 -0.0629637 0.995268 
-12.5078 18.1017 -89.9999 117 109 113 -0.100798 -0.238597 0.965873 
-13.4208 13.5837 -90.2236 146 146 131 0.370156 0.0734966 0.926058 
-14.3701 13.8234 -90.1532 158 159 141 0.215328 0.00116393 0.976541 
-10.9154 13.7751 -89.7535 121 131 110 0.25935 0.0206993 0.965562 
-4.49492 12.0504 -90.3998 80 79 85 0.356841 0.584958 0.728346 
-9.32277 17.8861 -89.7148 144 139 139 -0.055954 0.692968 0.718793 
-8.94956 17.9098 -89.7054 146 140 142 -0.0737436 0.666584 0.741773 
-5.64962 13.5329 -89.817 96 98 97 -0.290845 0.0653441 0.954536 
-11.7797 12.4749 -90.4716 91 102 78 -0.102154 0.366393 0.924836 
-8.48281 16.3381 -89.6662 100 108 93 0.568692 0.31238 0.760926 
-15.6717 18.2442 -89.9525 109 111 96 0.260613 0.066727 0.963135 
-7.23755 13.9833 -89.8488 104 116 99 0.23279 -0.00354503 0.97252 
-12.5801 16.5184 -90.2342 141 139 131 0.28395 0.0260391 0.958485 
-10.8952 18.1235 -89.9197 122 113 122 0.127657 0.225656 0.965807 
-5.31713 13.3997 -90.0559 61 63 60 -0.111153 0.160012 0.980837 
-10.0357 14.751 -88.7127 85 102 82 -0.48495 0.769063 0.416372 
-9.09296 16.1206 -85.9416 86 110 77 0.542035 0.140309 0.82856 
-11.1857 18.0709 -89.9688 65 63 69 0.143372 -0.277365 0.950007 
-7.99557 16.898 -89.5995 116 111 112 0.041095 0.399019 0.916021 
-9.34232 14.7129 -87.115 104 121 96 0.191266 0.273827 0.942569 
-9.95326 17.6554 -89.6202 72 73 72 -0.0589646 -0.00103447 0.99826 
-12.8449 16.2906 -90.1613 115 116 95 0.316967 0.00621505 0.948416 
-15.3943 11.0125 -89.5433 95 87 99 0.32649 0.0637371 0.943049 
-14.1434 12.0301 -89.9267 71 81 66 0.473342 0.033907 0.880226 
-8.8934 12.049 -89.9122 25 30 32 -0.0662567 -0.0887166 0.993851 
-12.1425 16.3175 -90.2673 126 121 121 0.300407 0.0211906 0.953576 
-11.103 11.0976 -90.501 100 108 88 0.0703215 -0.0770188 0.994547 
-13.0769 14.553 -90.236 126 128 108 0.128143 0.231694 0.964312 
-10.5793 16.1972 -89.501 100 92 100 0.164952 0.320201 0.932879 
-10.9798 13.7938 -90.3166 129 136 115 0.212493 0.391281 0.895403 
-13.4214 16.4264 -90.2829 130 133 109 0.213528 -0.0777589 0.973837 
-14.9777 17.6895 -90.073 136 136 117 0.142011 0.43751 0.887929 
-15.4637 11.6338 -89.6544 103 95 106 0.305753 0.0550099 0.95052 
-13.3387 17.5686 -90.1832 148 147 127 0.0517034 -0.136727 0.989259 
-9.68609 15.5578 -89.8883 79 86 75 0.0875749 0.201052 0.975658 
-6.86246 12.6981 -90.0942 30 37 39 0.131039 -0.0660994 0.989171 
-7.08473 11.4066 -90.2949 39 39 46 0.124225 0.153744 0.980271 
-10.5016 17.9321 -89.84 50 47 51 -0.00609595 0.281633 0.959503 
-8.27605 13.6299 -88.2469 51 65 45 -0.078543 0.829699 0.552657 
-11.3247 14.0338 -90.4236 166 172 147 -0.00693539 0.667184 0.74486 
-10.224 15.4934 -88.4918 80 94 73 0.361844 0.533841 0.764253 
-17.0468 18.5519 -89.4234 100 92 103 0.10132 -0.0185209 0.994681 
-15.7079 18.4625 -89.8284 93 97 86 0.275346 -0.241457 0.930528 
-6.24434 16.4187 -90.2264 127 125 127 0.231607 0.0106896 0.972751 
-10.0489 17.8557 -89.8263 87 89 87 -0.00951664 -0.0750757 0.997132 
-5.25499 15.0408 -89.8051 117 136 108 -0.318346 0.42705 0.846336 
-5.54196 18.1868 -89.6864 107 103 102 0.504857 0.381484 0.774331 
-15.0406 17.1934 -90.0462 152 158 131 0.269158 0.169069 0.94814 
-11.532 11.5242 -90.2909 95 104 89 -0.0520191 -0.0852227 0.995003 
-7.03723 11.9538 -90.1437 57 60 62 0.184253 0.0340339 0.982289 
-5.78842 16.4751 -90.4614 142 140 138 0.110159 0.303932 0.946304 
-7.24136 17.3081 -90.1752 121 118 124 0.0507508 0.342243 0.93824 
-11.8424 12.1541 -90.2583 98 109 86 0.0059839 0.250127 0.968195 
-6.35609 13.7483 -89.9038 58 63 59 -0.0418716 -0.308327 0.950358 
-14.138 13.1233 -90.1583 91 101 79 0.176475 0.430249 0.885292 
-10.0628 13.867 -89.7813 74 78 67 0.542035 0.140309 0.82856 
-14.6072 12.6872 -89.9972 110 121 98 0.266589 0.337286 0.902867 
-14.1985 11.4143 -89.9042 139 141 128 0.47005 -0.0282838 0.882186 
-15.5169 15.1111 -89.8126 177 182 179 0.261029 0.0157832 0.965202 
-14.6093 18.3454 -90.1028 152 152 137 -0.0435797 -0.106156 0.993394 
-9.83321 15.4952 -89.8186 83 91 75 0.101925 0.178062 0.978726 
-8.04437 11.839 -89.7879 108 116 104 0.466767 0.00930875 0.884331 
-5.0553 13.3437 -89.8865 55 57 66 -0.262905 -0.136076 0.955177 
-12.8026 14.5041 -90.3067 139 143 116 0.0764554 -0.142325 0.986863 
-14.7932 11.0148 -89.6809 97 90 98 0.340664 0.0453355 0.939092 
-12.1328 15.009 -90.3733 183 182 170 0.0759119 0.0539085 0.995656 
-11.9571 17.767 -90.0858 128 122 123 0.0322894 -0.0343726 0.998887 
-10.6887 17.6445 -89.761 124 117 124 0.455109 -0.0145953 0.890316 
-14.0061 10.7545 -89.9086 129 138 118 0.00921229 0.443506 0.896224 
-14.6132 15.5044 -89.9444 131 137 116 0.155005 0.842932 0.515207 
-15.2302 11.5503 -89.5898 67 62 73 0.352001 0.0243201 0.935683 
-11.4723 13.6945 -90.4137 99 109 87 0.163687 0.271909 0.9483 
-10.1559 16.343 -89.4143 96 89 96 -0.212129 0.76955 0.602324 
-12.6197 15.9843 -90.2017 137 139 117 0.285899 0.0362056 0.957575 
-7.90468 17.5375 -89.5481 90 85 88 0.253589 0.0230536 0.967037 
-7.31463 11.2449 -89.9855 97 109 92 0.238268 0.0179599 0.971033 
-10.2374 17.8089 -90.0366 55 48 55 0.0389632 0.442031 0.896153 
-9.93507 17.4887 -89.7976 81 80 80 -0.0613713 -0.0881515 0.994215 
-12.2993 16.0543 -90.3167 153 149 146 0.347795 0.070088 0.934947 
-6.71745 13.6337 -87.5479 117 140 109 0.0226612 0.451891 0.891785 
-11.6919 15.262 -90.2222 122 120 114 -0.0245771 -0.0737313 0.996975 
-8.43818 15.8577 -86.1595 95 116 89 0.564945 -0.419153 0.710737 
-13.8926 16.7015 -90.2312 97 102 82 0.164774 0.0853936 0.982628 
-13.1899 18.3475 -90.1664 104 102 92 0.028229 0.266334 0.963467 
-16.4198 16.3511 -89.6125 72 76 77 0.294859 -0.00122348 0.95554 
-8.56163 15.726 -89.0265 62 68 61 -0.0338694 0.470107 0.881959 
-10.5089 13.0202 -90.089 116 126 106 0.055111 0.572306 0.818186 
-5.5931 12.592 -89.9168 96 94 101 0.681493 0.0153301 0.731664 
-12.1765 14.9902 -90.325 160 159 144 0.00493571 -0.00493571 0.999976 
-9.42768 15.5691 -89.6724 120 122 116 -0.139699 0.396518 0.907335 
-14.5693 14.1572 -90.1643 138 140 126 0.258889 0.0562801 0.964266 
-12.7959 13.6458 -90.2683 87 90 78 0.218671 0.161057 0.962415 
-11.1406 14.7026 -90.1229 126 119 120 0.0660194 0.518322 0.852633 
-9.40143 15.0302 -88.9674 70 82 73 -0.369485 0.704485 0.605955 
-11.9796 15.5334 -90.2049 111 107 102 -0.0513847 -0.0732506 0.995989 
-8.21127 16.9134 -89.7133 110 104 105 -0.0287322 0.513076 0.857862 
-6.40379 14.6348 -89.3452 86 95 83 0.241082 0.417776 0.875981 
-12.1108 15.7229 -90.2035 110 107 103 -0.153246 -0.0380234 0.987456 
-16.6489 17.5411 -89.5734 129 124 130 0.419556 0.165804 0.892458 
-9.04245 17.7179 -89.5648 128 124 124 0.138675 0.379606 0.914696 
-11.5514 16.3296 -89.8972 74 74 73 -0.190233 -0.105685 0.976034 
-11.3437 18.3415 -89.5787 31 24 32 0.218212 -0.158106 0.963009 
-8.34985 15.4169 -90.0204 53 63 56 0.294171 -0.00122063 0.955752 
-9.24528 14.9825 -89.8199 48 50 50 0.129738 0.127313 0.983341 
-16.8382 14.6981 -89.2176 107 97 109 0.450893 -0.00925587 0.89253 
-12.2986 17.3993 -90.037 128 124 123 0.112538 0.25224 0.961098 
-12.2048 14.3798 -90.2894 115 124 93 0.088692 -0.0383237 0.995322 
-12.8449 13.8231 -90.2868 99 104 92 0.218671 0.161057 0.962415 
-11.1582 11.3366 -90.4987 121 126 110 0.0743464 0.033402 0.996673 
-16.797 15.773 -89.386 90 84 97 0.265901 0.102469 0.958539 
-8.60539 18.0929 -89.9323 137 129 133 -0.0924009 0.714274 0.69374 
-10.2106 14.2914 -86.4412 83 96 78 0.556351 -0.304479 0.773153 
-14.0356 11.5876 -90.0422 88 93 80 0.385752 0.0490475 0.921298 
-16.6875 17.2352 -89.5148 114 110 115 0.419483 0.214929 0.881952 
-13.0623 12.0731 -90.3594 127 134 118 0.205578 0.0492907 0.977399 
-15.757 17.8743 -90.0659 129 130 115 0.196876 0.442601 0.87484 
-14.017 12.2889 -90.1208 108 127 99 0.181425 0.37285 0.909982 
-16.582 15.9915 -89.4587 89 87 93 0.34449 0.0837948 0.935043 
-14.3826 15.0765 -90.1983 124 124 112 0.192183 0.0513285 0.980016 
-7.77932 18.3624 -90.0376 115 109 117 -0.0013315 0.493986 0.869469 
-9.54117 15.9571 -90.0743 113 116 104 0.171416 0.361248 0.916579 
-16.7885 14.8293 -89.1971 101 92 105 0.338204 0.0723783 0.938285 
-12.7122 11.3213 -90.3492 112 117 100 0.0821429 0.0776419 0.993592 
-9.4305 12.5688 -87.2896 137 157 124 0.488329 0.16376 0.857157 
-8.82127 14.4941 -88.7698 61 75 61 -0.265738 0.895196 0.357781 
-12.3849 16.2297 -90.3458 132 128 124 0.347795 0.070088 0.934947 
-11.0105 13.7135 -89.7153 126 136 115 0.209757 0.397512 0.893301 
-6.37897 17.3805 -89.8755 99 99 99 0.106538 -0.0252616 0.993988 
-12.8292 11.9896 -90.3019 158 158 144 0.0640565 0.429315 0.90088 
-5.13761 15.2136 -89.817 100 120 90 0.507811 0.245416 0.825772 
-7.45068 17.417 -90.0834 59 56 62 0.171359 0.289254 0.94179 
-10.0784 18.0187 -89.7553 78 79 78 -0.0404373 -0.0841533 0.995632 
-5.86587 13.1937 -89.9208 54 53 56 0.603104 0.343005 0.720148 
-9.00372 15.8653 -89.3464 75 81 72 0.411955 0.418366 0.809483 
-7.9466 18.3122 -89.9902 108 101 105 -0.017697 0.529549 0.848095 
-11.5257 17.855 -89.946 99 92 97 0.13575 -0.221078 0.965762 
-6.87345 11.7498 -90.0575 68 70 70 -0.109751 0.057704 0.992283 
-14.8612 16.1378 -89.8347 43 57 41 0.578477 -0.227979 0.783192 
-11.6541 13.8047 -90.3163 97 108 86 0.196154 0.214835 0.95675 
-5.47358 15.2286 -89.5105 97 124 86 0.375571 0.00897268 0.92675 
-8.40311 13.2023 -87.673 98 121 91 0.0167097 0.3689 0.929319 
-11.8714 11.9852 -90.4366 115 126 98 0.0456094 0.0413666 0.998102 
-4.96308 13.0712 -89.9707 136 133 134 -0.133741 -0.114463 0.984384 
-14.2192 18.7894 -90.1616 151 148 130 0.128125 0.111361 0.985486 
-13.8495 16.542 -90.1897 159 162 140 0.194221 0.155634 0.968533 
-10.9775 14.871 -89.9895 128 121 126 0.120865 0.447912 0.88587 
-12.0862 13.9434 -90.3349 142 153 120 0.15965 0.334572 0.928748 
-14.3023 11.9456 -89.8122 107 117 94 0.509396 -0.107619 0.853776 
-11.5046 16.845 -90.0038 129 122 127 0.0122174 0.533493 0.845716 
-13.7687 11.608 -90.2094 133 137 122 0.692899 0.247802 0.677115 
-6.64005 15.3754 -89.5331 52 60 54 0.124061 0.53857 0.833397 
-11.4718 16.3116 -89.8549 109 103 108 -0.147474 0.483305 0.862941 
-9.05259 13.0521 -87.5099 68 87 57 0.51128 -0.0121412 0.859328 
-16.3095 14.9926 -89.4722 97 92 104 0.3102 0.0161952 0.950533 
-16.8298 14.8597 -89.2271 63 58 69 0.309573 0.0552349 0.94927 
-11.865 16.626 -89.967 91 91 92 -0.0336016 -0.0812941 0.996124 
-15.8055 17.8164 -89.9386 86 95 82 0.100896 -0.286963 0.952613 
-8.32048 11.4708 -89.8307 46 42 41 0.445466 0.073095 0.89231 
-12.4563 12.6509 -90.2851 98 103 90 0.0818113 0.0381786 0.995916 
-14.9382 11.3849 -89.5503 129 122 131 0.0916995 0.275099 0.957033 
-13.03 15.4512 -90.3684 147 147 125 0.145731 0.128587 0.980932 
-6.7009 13.4228 -87.6147 104 129 92 0.0914698 0.608347 0.788383 
-4.77213 11.7498 -90.3221 161 161 161 -0.120705 0.692939 0.710821 
-6.14845 11.677 -89.981 89 88 92 0.218222 0.520377 0.825583 
-17.6132 18.7023 -89.1459 74 68 81 0.519351 0.133129 0.844128 
-13.1213 11.9154 -90.2847 147 151 135 0.107981 0.43052 0.896099 
-15.8497 15.8641 -89.6959 62 68 70 0.362128 -0.0649973 0.92986 
-8.03501 13.738 -88.0417 91 108 85 -0.104818 0.0552269 0.992957 
-12.8334 11.9843 -90.3282 157 159 144 0.156073 0.364171 0.918161 
-5.46158 12.7956 -89.9929 89 86 89 0.612544 0.155017 0.775087 
-13.1206 12.2678 -90.2875 128 133 119 0.211026 0.0176837 0.97732 
-7.53785 18.2708 -90.1516 61 58 63 -0.0199489 0.450845 0.89238 
-16.8446 17.066 -89.454 76 73 82 0.41566 -0.0250716 0.909174 
-12.0531 15.6008 -90.1902 129 130 117 0.262985 -0.0511013 0.963446 
-14.5954 11.4827 -89.7343 118 116 115 0.302484 0.0313781 0.952638 
-7.21857 17.9819 -90.2192 132 131 134 0.134421 0.411752 0.901327 
-15.3465 17.0853 -89.7712 108 126 95 0.490724 0.131728 0.8613 
-11.7752 18.0406 -89.9217 91 84 89 0.452939 -0.360762 0.81529 
-4.48063 13.3634 -89.799 152 151 149 -0.0581479 0.241252 0.968719 
-11.9662 12.531 -90.5949 105 123 91 0.110465 -0.0626346 0.991904 
-12.2782 11.6442 -90.4378 104 110 91 0.00578634 0.197893 0.980207 
-14.0098 11.3612 -90.2028 116 120 106 0.1251 0.269953 0.954712 
-5.02317 12.2542 -90.2576 56 55 60 0.742131 -0.143007 0.654821 
-11.5763 13.6869 -90.331 104 109 87 0.282507 0.207357 0.936586 
-13.9195 15.5883 -89.971 95 101 82 0.215214 -0.385042 0.897455 
-13.3324 11.1069 -90.2525 163 165 152 0.281853 0.0785069 0.95624 
-8.80189 15.7421 -86.3628 102 126 93 0.421312 -0.185144 0.887816 
-6.80684 15.1251 -89.6841 55 61 61 0.25935 0.0206993 0.965562 
-8.89194 13.2895 -87.5342 89 108 80 0.246348 0.522133 0.816511 
-12.2105 15.5931 -90.2706 149 146 140 -0.102171 -0.178491 0.978623 
-12.5693 12.2927 -90.3325 129 134 112 -0.00902508 -0.0190529 0.999778 
-8.67604 14.1076 -88.9 86 102 82 0.0120945 0.498561 0.86677 
-15.9191 14.7669 -89.6288 86 84 91 0.331307 -0.0266569 0.943146 
-11.7994 17.0112 -90.0082 82 80 84 -0.11684 -0.102678 0.987829 
-13.3532 15.0479 -90.2084 177 175 157 0.0597712 -0.0575977 0.996549 
-15.0104 14.7236 -90.0915 138 143 124 0.302048 -0.0764842 0.95022 
-14.7772 10.9535 -89.6916 105 99 105 0.332825 0.0530966 0.941493 
-4.88038 14.0698 -89.7784 77 83 80 0.191914 -0.229492 0.954203 
-14.7939 18.7806 -90.0742 160 158 141 0.135272 -0.0375123 0.990098 
-15.0743 16.9951 -89.9654 104 116 87 0.262324 0.0357155 0.964319 
-12.3198 11.2565 -90.3654 142 146 129 0.0416664 0.118242 0.99211 
-17.0293 16.9979 -89.3171 75 70 81 0.247307 0.0205084 0.96872 
-16.2666 17.3946 -89.6971 79 82 79 0.409342 0.106845 0.906103 
-6.50286 13.5887 -87.4623 121 142 113 0.0200197 0.455114 0.890208 
-8.77816 15.4416 -87.962 78 97 77 -0.439025 0.768702 0.465138 
-11.3955 14.3419 -90.545 99 107 88 0.313064 0.383312 0.868943 
-13.4301 16.3633 -90.4192 135 136 114 0.19298 0.261413 0.945739 
-15.8179 13.4598 -89.5948 135 128 139 0.223822 0.191656 0.9556 
-13.7901 18.4309 -90.2175 163 161 142 0.483656 -0.100703 0.869446 
-13.7697 15.9025 -90.1173 113 122 94 0.432306 -0.150804 0.889027 
-8.68062 17.5451 -89.7487 77 79 77 0.27817 0.0918609 0.956129 
-15.3799 16.9495 -89.7653 87 110 76 0.528103 0.0690054 0.846372 
-8.14513 11.8997 -89.6664 104 109 103 0.445899 0.058635 0.893161 
-7.47624 17.6628 -90.0495 70 70 74 0.231439 0.0251825 0.972523 
-5.51178 11.2222 -90.0139 112 122 100 0.238295 0.327837 0.914187 
-10.5561 10.9799 -90.4177 104 112 93 0.371334 0.108249 0.922168 
-11.6722 15.6811 -90.0361 130 126 126 -0.0939778 0.455863 0.885075 
-13.1214 14.3724 -90.2656 149 147 127 0.0566652 -0.0416971 0.997522 
-14.4495 16.5416 -90.1689 122 132 112 0.200562 0.034416 0.979076 
-12.5128 10.8951 -90.4329 157 157 144 -0.0298394 0.372343 0.927615 
-8.36072 13.3047 -87.7204 79 98 73 -0.0696279 0.822746 0.564128 
-11.2354 12.8022 -90.3442 70 80 69 0.0779608 -0.0869998 0.993153 
-5.39985 16.2661 -89.9583 143 137 134 -0.169073 0.208392 0.963321 
-9.13696 11.1571 -90.1448 118 131 105 -0.0868567 0.235394 0.968011 
-7.59354 11.1506 -90.1724 76 75 77 0.148965 0.184615 0.971456 
-15.3678 16.6786 -88.2059 105 142 103 -0.0963548 0.838431 0.536423 
-9.5235 15.2759 -89.7243 89 92 89 0.136968 0.238715 0.961382 
-10.2898 16.3736 -89.3029 114 108 111 -0.250829 0.727246 0.638904 
-17.5461 17.9821 -89.189 119 111 124 0.361237 -0.0648373 0.930217 
-13.0589 18.4218 -90.1378 93 94 88 0.0522225 0.214962 0.975225 
-10.3946 12.1064 -90.1731 55 63 55 -0.00738639 -0.0749191 0.997162 
-12.3376 13.7451 -90.2975 158 167 136 0.00936783 -0.0593296 0.998195 
-7.51282 12.6005 -87.1748 68 82 59 0.221896 0.224619 0.948846 
-11.7223 13.9859 -90.505 101 111 90 0.131066 0.561079 0.81732 
-12.582 14.5765 -90.2913 138 144 115 -0.21352 -0.0446341 0.975919 
-8.41069 14.2626 -88.2539 82 94 75 0.0124898 0.650855 0.759099 
-4.6305 14.404 -89.6742 74 90 68 0.129895 -0.0144328 0.991423 
-15.6904 14.6712 -89.6185 116 117 119 0.336336 0.0978188 0.936648 
-12.8035 13.6174 -90.379 149 145 132 0.0946144 0.481545 0.871299 
-9.42135 14.6067 -87.1888 98 114 90 -0.230909 -0.496989 0.836471 
-5.22851 12.3602 -90.0905 66 64 69 -0.194364 -0.133387 0.971818 
-7.97038 12.861 -87.3767 91 113 84 0.254117 0.448889 0.856693 
-8.49342 16.095 -89.7661 100 103 94 0.0212594 0.306385 0.95167 
-6.39851 11.7542 -89.9621 102 101 106 0.222963 0.618994 0.753083 
-12.5906 17.5816 -90.1684 115 110 109 0.149233 0.24696 0.957466 
-15.6209 15.3622 -89.898 80 83 85 0.343706 0.0347568 0.938434 
-10.6215 18.3764 -89.9311 136 127 136 0.0616504 0.453473 0.889135 
-15.5936 15.6625 -89.8054 83 91 85 0.280326 0.00121353 0.959904 
-6.74659 13.9023 -87.7265 89 112 82 -0.188346 0.519836 0.833244 
-12.7966 16.754 -90.1367 109 109 89 0.298271 0.0495002 0.953197 
-8.14074 11.8125 -89.9066 78 83 85 0.325356 -0.117452 0.938269 
-7.78073 11.0347 -89.9786 113 124 105 0.288802 -0.112092 0.950804 
-6.43835 15.1593 -89.6535 67 71 70 0.202846 0.0175878 0.979053 
-8.53283 13.4406 -88.1419 98 115 95 -0.267745 0.939189 0.215028 
-9.88896 15.3135 -89.7967 46 48 46 0.172522 0.424781 0.888705 
-9.55119 12.8264 -87.2185 110 130 100 0.476305 0.00933932 0.87923 
-10.5382 13.7195 -90.152 111 120 102 0.0646737 0.639551 0.766024 
-10.0975 17.0356 -89.7833 54 55 56 -0.209367 0.545576 0.811487 
-6.69138 16.56 -89.9258 110 112 110 -0.100972 -0.0986504 0.989986 
-9.20702 14.3848 -89.716 72 74 72 0.00968455 0.0957694 0.995356 
-9.35939 16.5738 -89.5656 122 125 111 -0.158668 0.63014 0.760097 
-6.01676 13.0028 -89.7915 46 46 52 0.535992 0.250129 0.806318 
-13.8782 16.7059 -90.1599 93 99 79 0.184121 0.186733 0.965003 
-16.4829 16.0068 -89.4777 64 62 71 0.35485 0.0139905 0.934819 
-6.88893 12.8577 -87.3816 88 105 80 0.330161 0.288706 0.898689 
-9.78945 11.2325 -90.0738 52 57 50 0.336554 0.0113445 0.941596 
-15.2976 12.344 -89.514 97 92 97 0.275799 0.187982 0.942655 
-8.47038 15.6624 -89.7317 69 79 62 0.664369 -0.129888 0.736032 
-14.8479 12.5608 -89.8602 143 148 133 0.0950436 0.630212 0.770584 
-10.8903 16.8065 -89.8859 106 100 105 -0.129939 0.670604 0.730346 
-16.1525 17.5543 -89.8046 112 114 104 0.346913 0.0454755 0.936794 
-5.72678 17.9159 -89.962 129 124 126 0.109783 0.176393 0.978179 
-13.4216 13.6991 -90.266 131 133 118 0.201383 0.12539 0.971454 
-14.5516 12.3597 -89.7768 115 128 103 0.189093 0.480922 0.85613 
-11.8961 18.6342 -89.7004 104 96 104 0.0438416 -0.0523961 0.997664 
-10.9842 12.4034 -90.4802 84 93 79 0.133701 -0.348726 0.927639 
-12.8497 13.9845 -90.3005 135 139 115 0.0390212 -0.108145 0.993369 
-15.3289 12.3564 -89.6819 127 122 128 0.174643 0.517957 0.837389 
-14.643 12.1619 -89.6381 140 146 130 0.119349 0.587903 0.800079 
-11.5362 13.5149 -90.3209 124 130 106 0.152809 0.320762 0.934752 
-15.0735 12.6534 -89.8255 138 138 133 0.107401 0.622337 0.775346 
-7.79622 14.5835 -88.0228 111 131 106 0.0117834 0.420274 0.907321 
-10.4325 10.9922 -90.3381 151 159 135 0.363847 0.0297811 0.930982 
-12.9373 17.7171 -90.0457 112 110 102 0.0401147 -0.23461 0.971262 
-11.1575 17.3151 -89.912 93 89 95 0.0693623 -0.149305 0.986355 
-15.0159 13.1693 -89.9274 138 138 130 0.286003 0.306536 0.907875 
-14.6928 12.0133 -89.7512 143 147 134 0.252085 0.361175 0.897778 
-16.5173 14.5445 -89.3507 89 84 95 0.274781 0.146103 0.950342 
-13.1344 12.9485 -90.2328 113 117 102 0.166667 0.117284 0.979013 
-11.7956 11.9554 -90.4526 111 119 94 0.0092869 0.465672 0.884909 
-14.0234 13.965 -90.2836 141 141 124 0.490829 0.00133016 0.871255 
-7.2209 15.1838 -88.7035 88 110 83 0.148765 -0.238288 0.959733 
-9.2275 14.6446 -86.9689 97 110 89 0.530882 -0.202313 0.822942 
-6.50838 11.5054 -90.1191 117 126 115 -0.118186 0.878562 0.462776 
-4.72568 12.4868 -90.1738 99 96 98 0.163028 -0.0702093 0.98412 
-9.81694 15.7827 -90.0314 126 123 124 0.169707 0.424992 0.889147 
-5.06097 14.3925 -89.6269 122 134 117 0.120198 -0.172243 0.977694 
-7.81871 12.9227 -87.4906 130 151 124 0.479766 0.118867 0.869307 
-10.3816 16.2828 -89.5163 100 98 99 -0.0855616 0.167508 0.982151 
-13.5633 12.306 -90.4219 178 182 166 0.491254 0.254097 0.833129 
-8.63723 15.2966 -86.5415 77 95 71 0.285509 0.259684 0.922523 
-13.5536 13.4151 -90.2018 113 115 96 0.210569 0.0934477 0.973102 
-5.83157 17.6505 -89.9297 166 164 163 0.0922901 0.152219 0.984028 
-11.7922 13.9503 -90.4432 120 123 103 0.281895 0.0438503 0.958443 
-7.44796 15.9217 -90.0415 75 77 74 0.135835 0.387901 0.911637 
-12.0598 17.5708 -89.9818 133 128 127 0.0785584 0.350184 0.933381 
-7.41692 13.3285 -87.6762 92 114 82 0.05762 0.541066 0.839004 
-14.7624 12.3332 -89.6161 147 155 138 -0.0912902 0.388324 0.91699 
-15.6055 14.3652 -89.8218 94 90 98 0.456048 -0.158815 0.87567 
-12.6427 17.2624 -90.143 81 80 76 0.11198 0.283243 0.952488 
-6.14485 14.682 -87.174 100 117 95 0.332992 0.226319 0.915367 
-13.7989 13.4949 -90.1539 119 121 101 0.193536 0.127759 0.972739 
-14.0348 13.4044 -90.1917 119 123 102 0.180094 0.096785 0.978876 
-7.30395 14.7581 -89.8699 41 47 46 0.0692029 0.322512 0.944032 
-16.5302 15.4885 -89.4952 96 92 104 0.221043 0.196929 0.955175 
-15.1197 15.9667 -89.7966 48 63 48 0.236647 -0.00832426 0.97156 
-15.0885 12.5082 -89.6451 91 92 92 0.221913 0.472508 0.852931 
-14.2113 16.0317 -90.1395 83 94 70 0.237821 0.084307 0.967643 
-7.58041 12.9414 -87.5265 116 137 110 0.474313 0.112525 0.873135 
-8.13252 13.1903 -87.6703 94 117 88 0.0178391 0.561244 0.827458 
-10.7271 17.3829 -89.8034 69 68 71 0.0317792 0.194206 0.980446 
-13.5856 16.1335 -90.2489 173 176 153 0.265089 0.116221 0.957194 
-7.42191 15.841 -89.8373 88 93 84 -0.0451095 0.479801 0.876217 
-7.96527 14.3877 -88.1666 72 86 66 0.582135 0.0790554 0.80924 
-8.0513 13.8512 -88.8361 90 108 82 0.417776 0.241082 0.875981 
-11.6952 13.4082 -90.3091 98 109 84 0.162279 0.152215 0.974934 
-11.1382 17.1435 -89.9178 113 106 109 -0.161394 0.283456 0.945307 
-11.6215 12.7929 -90.2939 138 147 120 0.153203 0.143238 0.977758 
-16.5852 18.1835 -89.6959 66 63 69 0.346178 -0.0535595 0.936639 
-13.3137 18.6963 -90.1962 153 151 134 -0.0573064 0.218252 0.974208 
-11.9714 16.346 -90.0167 120 118 116 -0.169687 -0.101324 0.980276 
-13.8699 16.3398 -90.2691 118 123 103 0.178441 0.191465 0.965142 
-7.87393 16.4922 -89.7342 108 106 102 0.12524 0.0188415 0.991947 
-13.93 15.3056 -90.1655 151 153 134 0.133704 0.403928 0.904967 
-7.17475 15.2835 -89.6502 53 67 56 0.0466428 -0.614837 0.787274 
-14.4986 13.5448 -90.2507 141 142 124 0.141031 0.158504 0.977234 
-8.62979 16.6545 -89.9462 134 139 118 0.149984 0.220411 0.963807 
-15.5264 11.8363 -89.6125 98 91 100 0.395891 0.0917809 0.913699 
-14.6104 18.2726 -90.1104 173 172 154 0.15501 -0.0169719 0.987767 
-16.4467 14.7543 -89.4623 101 93 106 0.270754 0.157603 0.94966 
-13.9715 12.0868 -90.1715 93 106 84 0.255315 0.141548 0.95644 
-16.0431 16.3603 -89.334 99 125 98 0.19898 0.480245 0.854267 
-10.8004 13.2653 -90.0179 85 99 77 0.143107 -0.0616638 0.987784 
-7.1082 13.2656 -89.9254 86 103 83 0.115762 -0.0415844 0.992406 
-9.73304 15.2183 -89.3228 70 78 73 -0.39173 0.685941 0.613215 
-12.765 14.4068 -90.2793 125 129 108 -0.102864 0.0913059 0.990496 
-11.6454 17.0391 -90.011 71 69 73 -0.113381 0.188138 0.975576 
-12.3245 11.9964 -90.3907 83 90 72 -0.223478 0.448456 0.865416 
-10.1031 11.4308 -90.3669 109 124 96 -0.302484 0.0313781 0.952638 
-15.0676 16.8815 -89.7271 95 111 82 0.568104 0.280096 0.773824 
-11.7977 16.3962 -89.9807 112 111 109 -0.147286 -0.115638 0.982311 
-9.09412 16.222 -85.8727 79 102 69 0.542902 0.146451 0.826928 
-14.5703 14.897 -90.1547 165 165 150 0.251753 0.0638777 0.965681 
-8.47465 12.8062 -87.3601 93 117 82 0.190696 0.509023 0.839363 
-9.3918 16.093 -89.5019 112 113 106 0.116641 0.271288 0.955405 
-10.5534 12.6183 -90.264 46 54 47 -0.0450863 -0.0868737 0.995199 
-13.3219 12.4012 -90.373 160 161 150 0.483769 0.0147409 0.875072 
-14.4175 12.0775 -89.6593 130 141 120 0.224214 0.411306 0.883491 
-14.5563 13.3707 -90.0298 115 122 100 0.199509 0.0954173 0.975239 
-9.35542 11.6256 -90.0012 71 79 69 -0.238698 0.0327149 0.970543 
-8.92778 13.6393 -88.0067 80 93 73 0.0380252 0.615445 0.787262 
-10.399 16.7925 -89.8033 115 109 115 -0.322496 0.805445 0.497247 
-12.9963 14.0448 -90.238 132 134 113 0.228622 0.113673 0.966856 
-16.5506 17.599 -89.6494 87 82 88 0.232883 0.47642 0.847815 
-8.19902 17.3192 -89.9186 122 116 122 0.294861 0.0363871 0.954847 
-10.6804 11.1945 -90.2341 145 154 129 0.141826 0.0917695 0.985629 
-7.69282 12.86 -87.5208 107 128 100 0.258844 0.329039 0.908148 
-8.50162 13.398 -87.9517 106 124 98 -0.0697395 0.824065 0.562186 
-12.34 12.9047 -90.2962 135 142 116 0.027732 -0.116475 0.992806 
-7.32619 12.6311 -87.1518 123 131 117 -0.188333 0.764049 0.617058 
-10.6612 18.2206 -90.0604 120 112 121 0.123084 0.32597 0.937333 
-14.9559 16.6474 -89.6773 47 61 42 0.574136 0.262687 0.775477 
-13.5276 11.4758 -90.2793 128 135 120 0.212311 -0.175387 0.961334 
-8.3029 12.8724 -87.4363 75 99 65 0.166809 0.49157 0.854712 
-9.02049 14.726 -89.8827 37 46 41 -0.0200769 0.213759 0.97668 
-12.0614 16.8335 -90.0485 117 112 110 0.0362366 0.444234 0.895178 
-10.2126 15.5521 -89.7845 67 62 66 0.192452 0.481875 0.854844 
-13.3371 10.935 -90.3545 145 150 136 0.210073 -0.0129095 0.977601 
-16.4606 17.5343 -89.7092 108 106 107 0.428139 0.160012 0.889434 
-12.6844 15.3408 -90.2583 147 149 125 0.119243 0.0775657 0.989831 
-8.47807 12.9241 -87.5038 105 131 97 0.163167 0.483621 0.859934 
-13.5926 17.3507 -90.2001 134 136 118 0.0517034 -0.136727 0.989259 
-6.3506 11.3953 -90.4488 108 113 105 -0.118186 0.878562 0.462776 
-6.23129 16.7461 -90.1539 105 102 103 0.486386 -0.453411 0.746891 
-13.9353 15.4587 -90.1479 141 144 123 0.0828219 -0.0873601 0.992728 
-9.26708 12.5703 -87.4421 110 129 101 0.570424 -0.231589 0.788025 
-6.9664 13.583 -89.6308 67 83 64 -0.0808992 -0.0922935 0.99244 
-6.11996 18.3793 -89.9065 147 143 137 0.041528 0.293213 0.955145 
-13.3851 12.0898 -90.487 155 155 143 0.334337 0.0668675 0.940078 
-14.7411 11.3903 -89.6492 126 121 125 0.131512 0.238284 0.96225 
-9.04153 16.011 -85.7971 95 117 85 0.548623 0.14344 0.823673 
-13.2287 12.8425 -90.5212 143 141 128 0.0985121 0.417636 0.903258 
-6.52145 13.7194 -89.9016 62 68 63 0.0497988 -0.14708 0.98787 
-7.13176 13.3047 -89.8259 104 120 98 -0.0435306 0.588365 0.807423 
-13.7529 11.3745 -90.2796 118 123 111 0.250301 -0.486781 0.836895 
-10.7342 13.1707 -90.2188 83 92 75 0.190598 0.499757 0.844935 
-15.6734 17.9346 -89.8695 118 121 106 0.265383 -0.0616293 0.962171 
-8.38796 12.4742 -89.8815 11 14 17 -0.0464422 -0.063723 0.996886 
-14.0151 10.7779 -89.8321 141 149 128 0.411521 0.0894612 0.906999 
-14.3244 12.4833 -89.7932 96 113 86 0.0170742 0.160497 0.986889 
-11.1085 16.7994 -89.9092 75 68 75 0.0120579 0.489017 0.872191 
-11.9963 11.9357 -90.4047 113 121 102 0.0205797 0.253009 0.967245 
-16.2759 15.7791 -89.5863 74 74 81 0.232537 0.153711 0.960364 
-13.5467 17.8192 -90.1339 167 165 146 0.172727 -0.0125828 0.984889 
