ply
format ascii 1.0
comment Created by CloudCompare v2.11 alpha (Anoia)
comment Created 15/10/2019 14:55
obj_info Generated by CloudCompare!
element vertex 714
property float x
property float y
property float z
property uchar red
property uchar green
property uchar blue
property float nx
property float ny
property float nz
end_header
-5.21952 -14.6428 -91.2006 98 101 93 0.217785 0.0129494 0.975911 
-5.48536 -12.4431 -91.0794 161 162 146 0.217603 0.190903 0.957186 
-2.19819 -11.5865 -89.7532 132 161 126 -0.129545 0.760893 0.635815 
-0.00611115 -14.5564 -90.7977 120 115 121 -0.0569627 0.507107 0.859998 
1.11637 -12.6764 -90.889 99 93 98 0.231601 -0.0130647 0.972723 
-5.76519 -13.6204 -90.9801 64 81 51 0.24234 0.0633813 0.968119 
-7.81667 -13.0879 -90.609 125 118 126 0.159639 0.065038 0.985031 
-7.03761 -13.4438 -90.7476 116 129 102 0.194297 0.116578 0.973991 
-5.93358 -12.8374 -90.8576 87 100 74 0.339848 0.0559902 0.938812 
-5.98883 -13.2767 -90.2778 99 122 86 0.198918 0.539051 0.818447 
-6.5857 -12.7362 -90.7563 113 134 100 0.342979 0.0670188 0.936949 
-0.0491982 -12.4479 -90.6227 104 97 101 0.256003 0.16218 0.952974 
-7.94679 -16.8267 -90.4591 107 96 110 0.61037 0.158244 0.776149 
-5.75288 -15.7593 -91.0374 151 157 140 0.0236462 0.140751 0.989763 
0.094081 -14.5651 -90.9038 111 107 113 -0.0630371 0.522508 0.850301 
-0.144325 -13.8147 -91.0404 131 124 127 0.365913 0.608761 0.703931 
-1.18678 -13.3741 -90.8883 109 106 102 0.00387086 0.40386 0.914813 
-0.536166 -14.5428 -90.8579 114 107 116 -0.0692453 0.541244 0.83801 
-0.240163 -14.3967 -90.9398 57 53 57 -0.00959424 0.582507 0.812769 
-2.01563 -12.9025 -89.2307 52 70 55 0.449658 0.197375 0.87112 
-0.163162 -14.6577 -90.7436 32 27 33 -0.0459693 0.536308 0.84277 
0.297378 -14.8773 -90.9592 129 125 129 0.0294701 0.342109 0.939198 
-2.30285 -11.5636 -89.6968 114 144 110 -0.00131599 0.459279 0.888291 
0.236993 -14.7201 -90.9732 116 113 118 0.0400303 0.342195 0.938776 
0.390597 -14.565 -90.8329 130 127 130 0.128503 0.170921 0.976869 
-1.44172 -15.0375 -90.4524 162 153 156 -0.0556855 0.649664 0.758179 
-7.60239 -14.2095 -90.6387 128 119 128 0.26741 0.0183158 0.963409 
-0.806672 -13.2942 -90.8371 163 152 152 0.108177 0.0918921 0.989876 
-2.55685 -12.5802 -89.0082 41 61 45 0.0498479 0.642326 0.764809 
-5.70929 -13.8676 -91.0399 130 146 118 0.226845 -0.0551784 0.972367 
0.121378 -11.5387 -90.9189 119 117 119 -0.149563 0.657172 0.738752 
-1.34393 -12.8763 -90.4285 116 118 109 0.336336 -0.0978188 0.936648 
-0.320774 -13.611 -90.8551 131 122 126 0.0261071 0.292151 0.956016 
0.393089 -12.6205 -90.7314 94 84 100 0.34582 0.29492 0.890748 
-7.39708 -16.7652 -90.6462 108 101 112 0.279341 0.0310378 0.95969 
-7.83743 -14.9302 -90.3353 104 96 106 0.0804705 0.0518098 0.99541 
-4.84729 -13.8192 -91.1821 153 164 142 0.511431 0.123149 0.850454 
-1.52858 -14.3254 -90.8173 51 53 50 0.24668 0.219118 0.944 
-0.403957 -13.1772 -90.8742 130 116 120 -0.0577605 0.227355 0.972097 
-6.8719 -13.3293 -90.6822 98 115 85 -0.048784 0.268938 0.961921 
-4.43029 -13.6904 -91.138 71 82 73 0.249592 -0.0156749 0.968224 
-6.90986 -14.321 -90.3875 131 136 121 0.117233 -0.0323788 0.992576 
1.63921 -13.6977 -91.2935 81 77 77 0.0508744 0.479869 0.875864 
-4.34263 -13.5232 -91.0364 118 127 120 0.131149 -0.477037 0.869043 
0.114618 -13.575 -90.8987 104 100 101 -0.0761184 0.587404 0.805706 
-1.83671 -15.0083 -90.6629 129 121 122 -0.0922866 0.739758 0.666515 
-1.39003 -11.2115 -90.5643 126 122 117 0.246194 0.24063 0.938875 
-2.09668 -13.8315 -90.0349 60 78 60 0.505878 0.123208 0.85376 
-0.225847 -13.7053 -90.9186 126 117 121 0.0196494 0.407397 0.91304 
-6.9044 -16.7783 -90.8609 131 124 127 0.624567 0.152003 0.766036 
-8.38663 -14.2335 -90.2743 112 102 114 0.419278 -0.0117554 0.907782 
-3.73034 -16.1253 -91.2905 88 88 73 0.322941 0.00872813 0.946379 
-3.66574 -15.3001 -91.2835 152 153 148 0.181565 -0.0339702 0.982792 
-2.06571 -12.1282 -89.3869 147 170 144 0.237727 0.271487 0.93262 
-3.91347 -12.6004 -85.3473 126 158 125 0.190063 0.235894 0.953011 
-4.17276 -13.0444 -85.4594 145 174 141 -0.283846 -0.10072 0.953565 
-7.18082 -16.4941 -90.7734 131 123 129 0.62033 0.11051 0.776517 
-3.21465 -15.9058 -91.2641 105 105 95 -0.116767 0.163474 0.979613 
-7.39566 -16.3853 -90.6986 113 103 114 0.637842 0.0828178 0.765701 
-1.38844 -12.9984 -90.4695 105 109 99 0.376714 -0.197739 0.904979 
-3.92311 -12.1094 -91.229 147 158 140 0.187267 0.0057444 0.982292 
-3.99739 -15.3647 -91.2535 136 137 128 0.201479 -0.0270995 0.979118 
-4.9063 -13.0957 -85.3957 136 145 137 0.190177 0.0871133 0.977877 
-6.11728 -15.8745 -91.1882 116 117 106 0.534394 0.202491 0.820622 
-5.87443 -16.5986 -91.0835 161 162 150 0.592485 0.144763 0.792468 
-3.33816 -12.8287 -85.3978 96 129 99 0.412177 -0.0331332 0.910501 
-6.22264 -12.8612 -90.7581 107 119 91 0.23996 0.0658958 0.968544 
-3.52083 -14.0832 -91.1301 51 60 54 0.128493 -0.0032947 0.991705 
0.113815 -14.1606 -90.9575 127 124 126 -0.0663755 0.538065 0.840286 
0.383209 -14.3604 -90.931 104 100 105 0.0322053 0.349105 0.93653 
-2.13549 -14.1905 -90.5007 75 92 74 -0.438077 0.301855 0.846742 
-7.66405 -16.6883 -90.5934 121 114 125 0.308835 -0.00123042 0.951115 
-3.55028 -13.208 -85.4043 117 147 115 -0.324658 0.0801786 0.942427 
0.75558 -14.0081 -91.1662 100 95 100 0.0627375 0.506082 0.8602 
-8.10757 -12.58 -90.4203 126 119 129 0.256396 0.074519 0.963695 
-7.55056 -16.5795 -90.6122 102 94 104 0.609831 0.129088 0.781948 
-4.12321 -12.8482 -85.3371 145 177 144 0.235563 0.515776 0.823702 
1.02796 -11.0902 -90.7091 113 107 112 0.00897658 0.380863 0.924588 
0.0516075 -14.0449 -91.0366 135 131 133 -0.0727951 0.56666 0.82073 
-3.93955 -12.2371 -91.0238 146 155 136 0.292252 0.0468109 0.955195 
-3.26587 -12.2427 -85.634 47 70 45 0.409015 0.374272 0.832242 
0.341623 -13.8759 -91.1225 107 102 106 -0.109696 0.577731 0.808823 
-2.30691 -12.6981 -89.1305 61 79 64 0.145896 0.520215 0.841481 
1.38142 -13.6933 -91.2385 121 118 119 0.0943124 0.465932 0.87978 
-6.77887 -15.5377 -90.8648 130 130 120 0.114104 0.194353 0.974273 
-5.49977 -13.1494 -90.7374 80 94 72 0.167122 0.434518 0.885022 
-4.22914 -14.485 -91.2753 102 107 99 0.399666 0.115583 0.909345 
-0.0107396 -13.9288 -91.1157 120 114 118 -0.0602459 0.522598 0.850448 
-5.5789 -14.5149 -91.1206 120 130 110 0.283223 -0.0465744 0.957923 
-4.79319 -13.0297 -85.6504 126 147 122 -0.0492704 0.914831 0.400821 
-6.36474 -12.3101 -90.6114 128 144 107 0.166077 0.373319 0.912716 
-2.48951 -15.4423 -91.1206 162 162 150 -0.0813805 0.552531 0.82951 
-5.14663 -16.2245 -91.1238 139 139 126 -0.0496922 -0.0872373 0.994947 
-1.12624 -12.9098 -91.0212 117 119 115 0.49876 -0.329851 0.801522 
-2.11439 -10.8205 -90.7146 167 162 168 -0.001359 0.561268 0.827633 
-1.94405 -10.7447 -90.7899 90 83 90 0.0317378 0.536784 0.843123 
0.589184 -14.3851 -90.8853 113 109 112 -0.0520199 0.55816 0.828101 
-7.74225 -16.9807 -90.6288 114 104 117 0.683736 0.175905 0.70821 
-4.19268 -13.3236 -85.4174 117 140 115 0.442817 0.243323 0.862964 
-0.677774 -11.5355 -90.7446 149 159 148 0.39301 0.0546217 0.917911 
-3.99213 -11.6002 -91.0544 111 106 109 0.240738 0.13143 0.96165 
-7.5305 -16.2523 -90.6416 168 163 172 0.297786 0.00122546 0.954632 
-7.09405 -15.6942 -90.682 97 94 96 0.266584 -0.00361879 0.963805 
-7.63684 -14.6441 -90.643 139 129 142 0.401776 -0.103551 0.909864 
-1.66116 -14.2595 -90.4683 138 144 138 0.260334 0.186732 0.947289 
-1.58743 -14.1458 -90.7843 54 60 53 0.243791 0.224508 0.943484 
-7.11383 -16.5223 -90.7001 112 106 114 0.322146 -0.0343792 0.946065 
-3.58434 -14.7409 -91.1568 146 147 145 0.188071 -0.132533 0.973172 
-6.44448 -16.5731 -91.0366 116 115 104 0.603887 0.145352 0.783705 
-4.74832 -15.8158 -91.168 148 155 131 -0.0138016 -0.077501 0.996897 
-6.53393 -16.8066 -90.969 105 106 95 0.605786 0.145089 0.782287 
-6.2971 -16.5328 -91.1547 134 133 121 0.603887 0.145352 0.783705 
-4.37172 -12.6724 -91.128 123 129 112 0.30127 0.0161173 0.953403 
-6.56968 -13.5757 -90.7136 117 138 104 0.328245 0.0138341 0.944491 
-1.23842 -13.0855 -90.7185 112 109 104 0.220953 -0.0422589 0.974368 
-4.64967 -14.9827 -90.9558 116 120 102 0.515119 0.16181 0.841707 
-6.23847 -16.7229 -91.1986 117 118 104 0.605786 0.145089 0.782287 
-6.71304 -16.254 -90.8743 165 162 153 0.589485 0.161317 0.791508 
-3.4059 -12.3228 -85.5608 97 123 95 0.693883 0.203353 0.690778 
-6.49764 -12.6788 -90.5198 136 156 120 0.252882 0.33474 0.907744 
-8.39799 -14.1507 -90.3318 111 105 116 0.52304 0.191429 0.830533 
-5.19665 -15.9676 -91.2444 167 166 153 0.131626 0.146388 0.980431 
-5.23412 -13.0141 -91.0416 142 154 133 0.295361 0.013594 0.955289 
-6.77549 -16.0828 -90.8702 185 182 172 0.584709 0.151037 0.797059 
-5.60015 -12.8303 -90.9957 108 112 94 0.264032 0.0307014 0.964025 
-6.48405 -16.0164 -91.1374 129 128 110 0.613551 0.148512 0.775564 
-1.56232 -11.1904 -90.5452 109 103 101 -0.0722775 0.537121 0.840403 
-1.12163 -13.9028 -90.8801 116 113 115 -0.024342 0.349755 0.936525 
-2.96758 -15.5583 -91.157 105 106 97 -0.0609416 -0.035282 0.997518 
-6.77991 -14.5729 -90.8255 153 165 141 0.407252 -0.0494044 0.911978 
-5.18643 -15.1534 -91.207 172 173 155 0.220606 -0.170408 0.960362 
-2.37355 -11.0406 -90.4734 133 131 127 -0.211659 0.780203 0.588628 
-6.24054 -12.2499 -90.7231 132 145 109 0.315742 0.0554159 0.947226 
-6.39252 -15.7736 -91.1845 175 172 155 0.622726 0.152289 0.767476 
-5.51736 -15.324 -91.0855 119 120 107 -0.016466 0.113067 0.993451 
-6.8993 -15.7353 -90.8512 146 143 135 0.633858 -0.0208964 0.773167 
-0.0526175 -12.7714 -90.6727 114 103 109 -0.0765321 -0.0654405 0.994917 
-2.14609 -14.7889 -90.8347 112 118 109 -0.638021 0.182073 0.748183 
-4.24361 -14.1737 -91.3117 128 127 122 0.486286 0.0340537 0.873136 
-6.23114 -14.6487 -91.1953 153 163 133 0.162322 0.409397 0.8978 
1.58016 -13.274 -90.9644 115 110 112 0.275972 0.0412085 0.960282 
-0.962307 -14.82 -90.7093 60 53 61 0.139626 0.267285 0.953448 
-5.26898 -12.0527 -91.1098 138 142 125 0.37378 0.129225 0.918471 
-0.456168 -12.9097 -90.8726 125 119 117 0.229498 -0.00117691 0.973308 
0.182943 -13.0019 -90.7445 111 103 107 0.26943 0.03849 0.96225 
-0.377106 -11.8366 -91.0894 111 113 107 0.287833 0.771266 0.567715 
-4.48172 -12.4229 -85.499 118 145 119 -0.042325 0.875171 0.481959 
-1.27972 -11.4241 -90.4635 59 71 49 0.215485 0.770474 0.599947 
-7.92907 -12.547 -90.5677 90 86 92 0.264732 0.0459862 0.963225 
-6.86461 -15.2966 -90.8396 167 166 153 0.608872 0.122959 0.783681 
-4.24506 -15.7784 -91.2105 156 158 137 0.193045 -0.108354 0.975189 
-1.82961 -15.0975 -90.8028 134 127 129 -0.357424 0.155584 0.920892 
-7.06111 -12.4398 -90.6518 143 161 125 0.149479 0.316786 0.936644 
-1.37533 -14.0564 -90.6048 84 83 83 0.178876 0.104858 0.978268 
-5.94001 -13.1062 -90.839 82 99 67 0.261029 0.0157832 0.965202 
0.255194 -12.8684 -90.5991 110 101 112 0.356046 0.313624 0.880268 
0.135233 -10.6187 -90.9726 113 118 110 -0.298656 0.434831 0.849545 
-4.21301 -15.5009 -91.2152 118 120 104 0.17311 -0.0680502 0.982549 
-0.156216 -13.9964 -91.0444 147 141 145 0.0981322 0.342791 0.934272 
-0.364547 -13.9412 -91.0414 136 128 132 0.0981322 0.342791 0.934272 
-7.45502 -16.1998 -90.6646 136 127 137 0.58685 0.13817 0.797819 
-2.10893 -14.5235 -90.8522 44 50 47 0.127318 -0.261198 0.956852 
-7.47491 -16.9312 -90.6318 113 107 118 0.321446 -0.0137584 0.946828 
-6.28639 -14.4498 -91.0436 116 122 100 0.211666 -0.0495903 0.976083 
-8.86672 -13.4445 -90.0973 100 94 104 0.296595 0.0547365 0.953433 
-6.98892 -16.7782 -90.7338 86 80 87 0.655829 0.107586 0.747203 
0.430477 -13.3796 -91.0699 52 47 50 0.152549 0.409175 0.899614 
-8.18864 -14.3548 -90.4077 119 111 122 0.412341 0.0951556 0.906047 
-6.68221 -14.2759 -90.5327 137 148 122 0.267822 -0.00848304 0.963431 
-4.65941 -15.2142 -90.9659 114 118 101 0.165972 -0.183985 0.968815 
-0.917164 -12.2818 -90.4489 131 139 126 0.454818 0.51105 0.729362 
-2.72636 -13.5847 -89.8682 40 55 47 0.0290312 -0.833609 0.551592 
-2.46932 -12.1631 -89.5774 45 68 43 0.197127 0.872989 0.446129 
-4.57894 -12.7878 -91.0252 165 169 151 0.271731 0.0384642 0.961604 
0.558765 -12.5816 -90.7719 81 73 82 0.360723 0.370012 0.856137 
-6.2852 -16.6259 -91.1508 104 107 92 0.603887 0.145352 0.783705 
-2.82421 -12.8707 -88.9143 56 73 58 0.231399 0.42249 0.876331 
-4.83806 -12.1613 -91.163 163 165 151 -0.0388673 0.435582 0.89931 
-5.24979 -16.5336 -91.2074 179 175 160 0.173561 0.0507696 0.983514 
-7.08394 -12.5895 -90.4305 136 155 121 0.600897 0.122542 0.789877 
-4.3926 -12.8133 -85.3993 128 155 127 0.445567 0.240153 0.862436 
-4.52192 -11.9753 -91.1136 189 185 184 0.319521 -0.0607995 0.945627 
-3.92805 -12.3408 -86.426 63 83 59 0.23198 0.0252414 0.972393 
-6.5661 -15.1962 -91.0335 146 147 127 0.67471 0.172885 0.717549 
-6.42825 -15.1994 -91.2471 175 177 155 0.67471 0.172885 0.717549 
-1.22199 -11.7228 -90.1632 78 99 72 0.485411 0.606344 0.629859 
-5.89458 -14.5735 -91.1148 142 148 126 0.271756 0.0359859 0.961693 
-6.83646 -12.3945 -90.7181 131 151 113 0.219227 0.392843 0.893092 
-6.50996 -12.5301 -90.2791 118 140 102 0.0469933 0.7049 0.707748 
-4.26176 -16.0847 -91.3623 120 125 98 0.0497818 0.149345 0.987531 
-6.11165 -12.5327 -90.679 102 113 82 0.422288 0.0751645 0.90334 
-4.69959 -13.9244 -91.1461 120 129 109 0.241764 -0.11765 0.963176 
0.059371 -10.877 -91.0213 118 122 115 -0.274534 0.404976 0.872139 
-8.5242 -13.6147 -90.2472 132 125 136 0.362705 0.0166614 0.931755 
0.66396 -13.7161 -90.9532 111 104 109 0.498603 0.372742 0.782597 
-5.35743 -12.4557 -91.0444 132 138 121 0.190222 0.124715 0.973787 
-6.39211 -12.2807 -90.6607 119 133 97 0.430904 0.0784714 0.898979 
1.33641 -12.2358 -90.884 101 95 99 0.16872 0.232489 0.957853 
-6.60152 -16.7803 -90.8388 91 93 86 0.363568 -0.242869 0.899351 
-2.93203 -15.2995 -91.223 123 125 114 -0.341086 0.220194 0.913879 
1.20816 -13.5805 -91.2782 128 121 124 0.0039527 0.457196 0.889357 
-4.64831 -15.2886 -91.0478 127 132 112 0.460856 0.155557 0.873736 
-6.7061 -14.6274 -90.7835 140 144 123 0.230927 0.162309 0.959337 
-4.68725 -14.6591 -90.9306 154 161 140 0.544949 0.257641 0.797905 
-6.73202 -12.1983 -90.6326 94 112 77 0.379846 0.0738216 0.922099 
-6.37885 -12.592 -90.6308 130 146 110 0.387288 0.074219 0.918966 
-0.0582056 -14.5901 -90.7057 105 103 105 0.164508 0.144416 0.975747 
-4.33284 -12.704 -85.4449 115 144 116 0.367519 0.0219222 0.929758 
-2.13881 -10.7168 -90.5598 178 175 176 0.00413308 0.637872 0.770131 
-6.32029 -15.5569 -90.9304 143 144 130 0.644128 0.0983065 0.758574 
-4.13499 -12.2023 -91.0554 143 146 134 0.308039 0.00865974 0.951334 
-6.74387 -16.5978 -90.7718 99 99 96 0.305291 -0.0418033 0.951341 
-1.2172 -14.8851 -90.6668 116 108 114 0.0625027 0.487521 0.870871 
-6.46309 -14.2132 -90.9388 125 135 110 0.14516 -0.0377188 0.988689 
-6.54055 -16.6863 -90.8829 134 138 121 0.613758 0.168215 0.771365 
-0.417732 -13.8754 -90.8737 135 127 131 0.234511 0.0976074 0.967201 
0.496958 -14.7929 -90.7756 110 108 108 0.11839 0.29398 0.948451 
-5.97842 -13.7826 -90.8338 130 147 112 0.412952 0.528118 0.741998 
-6.46624 -14.9655 -91.066 103 107 88 0.114237 0.37299 0.920776 
-4.14739 -13.5796 -91.0625 197 200 191 0.0265796 0.770809 0.636512 
-6.10615 -12.55 -90.6651 88 99 67 0.490731 0.0653381 0.868858 
-2.40054 -11.5841 -90.0393 90 112 83 -0.433491 0.767198 0.472751 
-4.65049 -13.3554 -91.1557 152 161 140 0.113679 0.621545 0.775086 
-1.32186 -13.6785 -90.7588 125 123 123 0.239799 -0.308724 0.920427 
-3.4842 -12.0896 -90.8828 96 122 87 -0.00670386 0.497427 0.86748 
-7.43202 -12.6667 -90.6534 144 154 131 0.58582 0.16415 0.793643 
-5.01085 -16.5026 -91.2256 169 168 148 0.214047 0.0623793 0.97483 
-4.13151 -13.2245 -91.2162 177 176 169 0.0886348 0.611725 0.786089 
-8.82104 -13.3391 -90.137 122 114 124 0.292252 0.0468109 0.955195 
-0.0134392 -12.6245 -90.6069 112 103 107 0.26791 0.413218 0.87033 
-3.93597 -13.7306 -91.2229 123 127 123 0.125245 0.570232 0.81188 
-4.15649 -13.8112 -90.7038 173 170 169 0.0739305 0.734956 0.674072 
-7.42253 -16.9087 -90.7198 108 97 113 0.687171 0.196114 0.699525 
-3.87039 -13.8901 -91.2098 87 89 91 0.128144 0.570019 0.811577 
-6.38575 -16.7565 -90.9235 78 92 70 0.6238 0.082498 0.777218 
-4.05323 -13.8155 -91.1542 156 158 159 0.199195 -0.429376 0.880885 
-6.22618 -12.981 -90.4083 96 117 81 0.672312 0.179181 0.718256 
-6.66052 -14.921 -90.8317 123 129 110 0.261476 -0.00843472 0.965173 
-2.36814 -13.0731 -89.1647 68 86 71 0.441839 -0.359489 0.821916 
-3.55139 -14.6333 -91.1058 133 137 134 0.121436 -0.221141 0.967652 
-0.656776 -11.9983 -90.5372 85 96 78 0.424929 0.470515 0.773338 
-3.80403 -14.0325 -91.1683 67 71 71 0.180505 0.568817 0.802412 
-7.58825 -12.6458 -90.7241 109 113 104 0.221689 -0.121737 0.967488 
-1.24456 -10.6275 -90.6402 132 124 128 0.228407 -0.0374636 0.972845 
-7.48593 -15.642 -90.7234 86 81 89 0.212113 0.0545435 0.975722 
-1.75217 -13.9032 -90.7419 72 82 70 0.208371 0.235609 0.949247 
-2.03067 -11.9342 -89.5224 147 175 139 0.146873 0.164448 0.97539 
-7.09285 -15.2486 -90.8973 133 128 128 0.58685 0.13817 0.797819 
-4.16838 -12.8714 -85.3895 100 128 103 0.366659 0.0192978 0.930155 
-2.07453 -12.5398 -89.3616 49 64 52 0.363292 0.382002 0.849761 
-1.86462 -11.3012 -90.158 61 70 54 0.35125 0.684528 0.638784 
-3.02694 -12.3807 -85.7584 84 102 81 0.292709 0.53004 0.795851 
-0.948304 -14.3391 -90.9669 82 77 82 -0.0716788 0.507373 0.85874 
-1.67951 -14.6715 -90.5968 138 133 137 -0.0929723 0.530657 0.842472 
0.0638291 -11.9931 -90.7869 165 158 163 -0.0583781 0.613682 0.787392 
-4.03149 -14.4531 -91.2674 148 148 142 0.362513 0.497852 0.787863 
-1.41113 -14.9878 -90.8294 47 49 53 0.112092 -0.168754 0.979264 
-1.17099 -13.4368 -90.8525 115 114 112 0.0108142 0.253532 0.967267 
-4.30082 -14.7194 -91.0002 103 108 91 0.430686 0.157006 0.88874 
0.269088 -11.4698 -90.9603 111 108 109 -0.143007 0.654821 0.742131 
-2.75719 -12.6286 -88.9367 69 87 72 0.176484 0.88242 0.436105 
-4.77246 -13.3349 -91.091 113 127 103 -0.390831 0.296545 0.871385 
-0.581154 -11.7294 -90.7774 91 99 89 0.393914 0.057418 0.917352 
-7.67175 -17.119 -90.5627 102 92 104 0.632657 0.212958 0.744577 
-5.36595 -12.1406 -91.0813 136 140 120 0.248404 0.00118853 0.968656 
-5.62175 -16.308 -91.088 174 172 160 0.602543 0.132411 0.787026 
-6.78125 -15.0909 -90.9664 153 151 136 0.618279 0.148928 0.77172 
-4.53724 -15.6214 -91.0904 136 140 120 0.114463 -0.133741 0.984384 
-2.45144 -11.5119 -89.8899 134 156 129 0.129284 0.379511 0.91611 
-3.27968 -11.229 -91.0543 204 194 204 0.32818 0.00374349 0.944608 
-4.70846 -13.8168 -91.1897 101 113 96 0.270701 -0.00849733 0.962626 
-7.23789 -16.7441 -90.7033 88 83 91 0.367651 -0.00636075 0.929942 
-0.713249 -12.2257 -90.3532 152 155 143 0.32084 0.749701 0.578801 
-0.944695 -12.0213 -90.5138 83 98 79 0.316407 0.753273 0.576599 
-1.74669 -14.9334 -90.6833 176 166 172 -0.0922866 0.739758 0.666515 
-2.92666 -13.4303 -89.8374 29 44 35 -0.0535075 -0.882188 0.467848 
-5.84977 -12.7341 -90.8167 75 83 57 0.465314 0.112415 0.877978 
-6.74843 -13.4273 -90.5099 118 139 104 0.362902 0.338402 0.868209 
-8.74669 -13.9689 -90.1999 122 115 126 0.311013 0.00619547 0.950386 
-0.30928 -12.0823 -90.9136 144 144 139 0.361841 0.715495 0.59761 
-3.67562 -11.4248 -91.0578 118 116 116 0.182901 0.0969744 0.978337 
-4.85755 -15.3078 -91.0831 148 151 134 0.133234 -0.0212726 0.990856 
1.45181 -14.2641 -90.9479 116 107 114 0.119511 0.496764 0.859618 
-7.00585 -13.453 -90.7937 126 142 112 0.301702 0.0629081 0.951325 
-2.10031 -13.1052 -89.8039 41 56 44 0.468802 0.248908 0.847508 
-7.03096 -16.1282 -90.6729 127 125 126 0.314918 -0.0909178 0.944754 
-8.40128 -13.3104 -90.3081 106 100 111 0.250914 0.118306 0.960753 
0.337385 -12.638 -90.6207 104 95 105 0.322231 0.278089 0.904894 
-0.813511 -11.9585 -90.5584 66 81 61 0.0495903 0.211666 0.976083 
-3.69805 -13.3175 -85.4328 123 152 121 -0.144482 0.0497019 0.988258 
-6.27866 -15.9213 -91.1498 138 139 127 0.55021 0.186435 0.813948 
-5.71862 -12.1142 -90.8867 146 148 130 0.271947 0.0158534 0.962182 
-7.57872 -14.8335 -90.6871 136 127 138 0.402075 -0.0831409 0.911824 
-7.42537 -14.7663 -90.7469 107 99 108 0.402075 -0.0831409 0.911824 
-3.25433 -15.9743 -91.2411 117 115 105 0.00583576 0.213589 0.976906 
-8.05751 -16.3329 -90.5189 100 90 100 0.608179 0.161477 0.777202 
-7.34636 -14.8578 -90.7717 98 95 100 0.402165 -0.0804329 0.912027 
-8.4178 -12.9962 -90.3321 186 180 190 0.231763 0.0400428 0.971948 
-0.448189 -13.0981 -90.7607 103 100 100 0.192908 0.024552 0.98091 
-8.41532 -13.4008 -90.3221 83 77 88 0.27456 -0.00362854 0.961563 
0.164288 -11.9913 -90.7811 166 159 165 -0.0583781 0.613682 0.787392 
-3.60268 -15.9098 -91.2584 130 129 118 0.297786 0.00122546 0.954632 
-3.86947 -12.1942 -91.0918 146 149 140 0.107426 0.422728 0.899867 
-2.36032 -12.1484 -89.4008 61 83 61 0.020988 0.684209 0.728984 
-4.7031 -12.4064 -91.087 132 141 122 0.295709 0.241424 0.924268 
-7.67185 -12.9167 -90.6559 81 82 80 0.320705 0.00873514 0.947139 
-2.63266 -12.7515 -88.815 44 63 48 0.0410495 0.638391 0.768617 
-2.55058 -12.2313 -89.3322 68 89 66 0.133665 0.907516 0.398181 
-5.26818 -16.355 -91.2178 151 149 137 0.243851 0.0303297 0.969338 
-2.61487 -11.6989 -90.4889 121 141 119 0.00678985 0.835152 0.549978 
-1.20822 -10.6553 -90.9534 56 49 55 0.112932 0.87058 0.478891 
-1.32055 -10.6818 -90.7721 124 116 120 0.12427 0.878461 0.461371 
0.0957141 -10.9761 -91.0971 103 105 99 -0.112009 0.554227 0.824795 
-1.42275 -10.6862 -90.571 135 126 130 0.0990428 0.894175 0.436625 
-1.51587 -12.3082 -90.1623 45 59 49 0.440006 -0.559554 0.702349 
-3.45212 -15.4466 -91.262 84 83 78 0.216665 -0.304464 0.927555 
-1.65974 -14.0586 -90.7368 87 99 87 0.207026 0.228675 0.951235 
-1.63661 -14.6203 -90.5728 117 110 113 -0.0135272 0.286532 0.957975 
-4.19651 -11.7146 -90.927 173 166 168 0.226693 0.116548 0.966968 
-3.27639 -16.0332 -91.384 91 99 83 0.0257064 0.128532 0.991372 
0.995373 -14.6526 -90.984 122 115 121 0.345892 0.21098 0.914246 
-2.44521 -14.9156 -90.8983 121 131 116 -0.17905 0.249055 0.951794 
-1.7336 -11.0631 -90.3708 94 94 88 0.0298394 0.372343 0.927615 
-5.19662 -16.5325 -91.223 157 152 140 0.213095 0.072674 0.974325 
-5.18291 -14.5536 -91.1869 140 143 127 0.534209 0.127332 0.835708 
-5.14678 -14.3999 -91.0709 120 124 107 0.488023 0.110199 0.865847 
-3.55314 -11.8399 -90.8312 140 153 130 0.114819 0.449352 0.885946 
-5.07661 -15.714 -91.024 128 129 110 0.367526 0.522956 0.769053 
-4.72398 -12.0433 -91.0801 177 179 168 0.186263 0.183658 0.965182 
-6.09342 -16.4898 -91.1117 103 105 95 0.603887 0.145352 0.783705 
-7.36371 -14.9412 -90.759 117 109 118 0.39579 -0.0603747 0.916354 
-7.76785 -16.6836 -90.5746 82 76 87 0.265974 0.0486994 0.962749 
1.042 -13.0801 -90.9951 107 102 106 0.226077 0.083686 0.970508 
-8.83611 -13.6254 -90.1771 96 89 100 0.273154 0.0541274 0.960446 
-5.05749 -12.0951 -91.1732 163 168 152 0.0603538 0.227867 0.97182 
-4.25728 -15.4821 -91.1984 106 103 92 0.49572 -0.230319 0.837386 
-5.74649 -12.2979 -91.16 147 149 131 0.441835 0.0817188 0.893366 
-1.75526 -10.8382 -90.5484 121 111 116 0.214346 0.284394 0.934439 
-2.25359 -12.8901 -89.3585 55 74 59 0.0425028 0.494952 0.86788 
-5.14211 -13.3243 -91.0288 125 137 113 0.26707 -0.0434766 0.962696 
-6.04283 -14.8299 -91.0709 108 112 91 0.328951 0.00625382 0.944326 
-4.36383 -11.8711 -91.082 130 122 126 0.109854 0.141241 0.983861 
-4.14428 -11.9329 -91.0483 159 152 152 0.173706 0.176279 0.968892 
-1.66985 -13.7733 -90.855 61 75 65 0.240393 -0.202364 0.949347 
-7.29341 -16.3196 -90.7043 96 92 99 0.370611 0.0245352 0.928464 
-4.84089 -12.4082 -86.2962 174 175 158 0.0813156 0.831701 0.549237 
-7.76935 -16.9455 -90.5786 80 74 82 0.562499 0.41074 0.717557 
-7.19954 -15.8193 -90.8915 96 96 95 0.57588 0.23878 0.781886 
-2.78119 -11.7078 -90.4459 50 74 47 -0.40221 0.630626 0.66373 
-4.21869 -13.1328 -91.1303 158 165 145 0.287877 0.0439986 0.956656 
0.134369 -11.3482 -90.9957 122 118 120 0.0041128 0.593615 0.804739 
-0.777695 -12.009 -90.4811 79 93 73 0.617039 0.361713 0.698875 
-5.62276 -14.6616 -91.1006 149 153 132 0.295806 0.0287069 0.954817 
-1.96407 -14.8291 -90.8424 113 114 111 -0.392055 0.433661 0.811314 
1.18452 -12.8136 -90.7468 128 121 125 -0.324815 0.728813 0.602766 
-1.4985 -11.656 -89.6636 136 166 126 0.305839 0.410346 0.859115 
-4.14118 -14.7614 -90.9855 131 133 119 0.448637 0.180926 0.875209 
-3.12704 -12.9952 -89.0094 58 73 57 -0.0507521 0.478715 0.876502 
-4.57952 -13.6117 -91.1796 100 113 96 0.20696 -0.0248352 0.978034 
-5.40266 -14.2178 -90.8421 93 99 82 0.346074 0.44405 0.82647 
-7.03394 -16.8692 -90.7606 84 80 87 0.367212 -0.0431245 0.929137 
-2.30559 -13.0706 -88.7975 79 95 82 0.0520516 0.569754 0.820165 
-1.89209 -14.0556 -90.5055 70 84 75 0.109478 0.00541971 0.993974 
-1.63944 -14.3243 -90.5125 85 85 84 0.322454 0.264091 0.908999 
-0.287582 -14.6578 -90.6971 53 50 55 0.136786 0.146645 0.979686 
-4.20784 -12.4842 -85.4822 138 171 138 -0.306758 0.535634 0.786763 
-1.74247 -14.8697 -90.7184 140 139 137 -0.398 0.429968 0.810385 
-1.32635 -12.3319 -90.2134 143 158 137 0.413988 -0.306259 0.857216 
-4.9766 -14.6487 -91.1328 124 129 114 0.205602 0.0468917 0.977512 
-3.16639 -15.7623 -91.262 89 88 78 0.255934 -0.0561807 0.96506 
-4.60112 -14.5135 -90.9552 97 104 84 0.488788 0.154122 0.858681 
-6.95805 -13.8962 -90.3017 123 131 115 0.307384 0.295618 0.904503 
-3.2375 -12.6138 -85.3289 112 143 114 0.438224 -0.00921191 0.898819 
-8.36107 -15.1516 -90.3944 131 121 134 0.650488 0.152435 0.744062 
-5.91548 -14.3559 -90.9547 120 129 104 0.0806381 -0.0541269 0.995273 
-0.710035 -12.375 -90.8146 68 76 68 0.440823 -0.557267 0.703654 
-5.54713 -16.1333 -91.221 146 144 135 -0.0178411 -0.05982 0.99805 
-5.05217 -13.0878 -91.0819 137 144 124 0.262235 -0.0207349 0.964781 
-2.01081 -12.8226 -89.6989 44 59 46 0.478719 -0.246242 0.842729 
0.0802593 -13.2139 -90.7605 105 99 102 0.292594 -0.115184 0.949274 
-7.60646 -13.8211 -90.6574 124 122 124 0.315742 -0.0554159 0.947226 
-4.16909 -14.979 -91.0908 69 72 65 0.449492 0.0848885 0.889242 
-1.33758 -11.1487 -90.4491 130 127 121 0.0761888 0.362231 0.928969 
0.203652 -13.8041 -91.0619 91 90 89 0.132437 -0.154716 0.979042 
-0.282032 -13.5262 -90.908 107 96 100 0.0501923 0.320459 0.945932 
-0.530554 -11.5684 -90.7472 81 91 80 0.130378 0.393938 0.909843 
-0.594685 -14.3614 -90.8196 126 119 127 0.0823815 0.307296 0.948041 
-7.72859 -13.4263 -90.5877 93 91 94 0.348577 0.0618231 0.935239 
-7.86983 -15.1504 -90.5702 108 100 110 0.536335 0.117732 0.835753 
0.224556 -14.0326 -91.028 163 158 159 0.0668952 0.570744 0.818399 
-2.74449 -14.8007 -90.9331 82 93 79 -0.167522 0.0148148 0.985757 
-1.36788 -10.8503 -90.7864 122 124 121 0.14035 -0.039937 0.989296 
-2.97981 -11.8331 -89.9447 54 79 45 0.115291 0.909825 0.398656 
1.5782 -14.2451 -91.2111 75 71 74 0.0416925 0.434409 0.89975 
-4.47691 -14.4653 -91.0358 122 133 119 0.478171 0.156466 0.864217 
-3.05507 -12.5116 -85.5864 102 127 100 0.428616 0.101918 0.89772 
-6.11597 -14.3369 -90.8208 130 146 114 0.267822 -0.00848304 0.963431 
0.267724 -11.9842 -90.6868 135 130 132 -0.0666988 0.557715 0.827348 
-3.67871 -12.1021 -85.3333 140 170 140 0.316298 0.331289 0.888934 
-1.00583 -10.7869 -90.7524 78 77 72 0.164841 0.399917 0.901606 
-7.35571 -13.8933 -90.7288 131 129 125 0.312972 0.0367456 0.949051 
-7.07086 -13.8399 -90.7434 130 136 119 0.216815 -0.110309 0.96996 
-0.689856 -13.5238 -90.7894 149 142 143 0.0283927 0.272816 0.961647 
-5.48855 -14.0565 -91.1321 122 130 115 0.229689 0.0276589 0.972871 
-7.3869 -14.3142 -90.7041 134 126 133 0.279055 -0.0184398 0.960098 
-7.2354 -14.2542 -90.7793 147 142 144 0.175035 -0.0289793 0.984136 
-0.218029 -13.3653 -90.8868 93 91 92 0.209186 0.0854074 0.974139 
-7.1936 -13.4214 -90.7194 131 140 122 0.194297 0.116578 0.973991 
0.460818 -10.4209 -90.7409 105 106 101 0.199685 -0.0151808 0.979742 
-1.24511 -11.4692 -90.5919 69 79 60 0.271569 0.620955 0.7353 
-1.08199 -12.241 -89.6278 112 114 103 0.613551 0.373394 0.695796 
-5.08071 -12.4876 -91.0688 157 162 144 0.265339 0.0884462 0.96009 
-8.00205 -14.5904 -90.4824 108 100 111 0.107677 -0.0366322 0.993511 
0.679573 -10.9773 -90.795 116 112 115 0.00385406 0.38926 0.92112 
-8.68779 -13.6613 -90.2148 79 72 83 0.29158 0.0441789 0.955526 
-1.35402 -11.7503 -89.7579 123 153 117 0.554603 0.541117 0.632146 
-7.68065 -15.5106 -90.613 96 90 99 0.391087 -0.0116164 0.92028 
-2.70575 -15.0516 -91.0017 118 127 112 0.275309 0.331254 0.902483 
-6.70332 -16.6653 -90.8006 122 123 119 0.612798 0.0946125 0.784556 
-0.0577621 -10.8238 -90.894 146 150 140 -0.292061 0.476356 0.829328 
-3.17791 -12.7816 -85.5166 94 123 95 0.322121 0.117258 0.939409 
-1.48322 -11.6917 -89.8661 113 141 106 0.554603 0.541117 0.632146 
-4.98809 -12.238 -91.0901 164 167 150 0.17917 0.246527 0.95243 
-3.80156 -12.8273 -85.1917 125 154 123 0.20638 0.64707 0.733967 
1.1685 -14.4928 -91.0216 111 111 113 0.153509 -0.226983 0.961724 
-1.97658 -12.0665 -89.3139 128 151 122 0.45307 -0.33625 0.825629 
-7.65335 -14.8896 -90.6616 107 102 111 0.428192 -0.0333483 0.903072 
0.179094 -13.23 -90.904 82 80 82 0.0294273 -0.19422 0.980516 
-5.35889 -13.9674 -91.0599 133 143 122 0.30366 0.00122939 0.95278 
-1.75499 -11.6029 -90.1076 66 88 58 -0.253664 0.95814 0.132746 
-4.08081 -13.3233 -90.6528 168 172 163 -0.50593 0.443306 0.739942 
-1.63377 -11.5577 -90.2747 111 129 101 -0.314572 0.943716 0.102203 
-3.7667 -14.7976 -91.177 88 91 90 0.183293 -0.0610977 0.981158 
-4.06306 -11.8059 -91.0314 150 149 146 0.200587 -0.0199414 0.979473 
-4.46731 -15.0629 -90.8968 128 132 116 0.413705 0.178546 0.892731 
-7.64456 -13.569 -90.5933 97 94 98 0.308359 0.039338 0.950456 
-2.25098 -11.1927 -90.3232 96 98 87 -0.250909 0.743258 0.620171 
-6.59282 -15.2722 -90.9537 127 129 111 0.116952 0.372871 0.920483 
-2.58012 -10.8664 -90.6467 125 121 125 0.419001 0.0750653 0.904878 
-4.79246 -14.2377 -91.2498 132 144 125 0.0668344 -0.0602606 0.995943 
-5.95712 -14.1853 -90.9416 94 105 77 0.0806381 -0.0541269 0.995273 
-8.42615 -13.8078 -90.2895 125 117 129 0.372328 0.0596256 0.926184 
-2.58303 -11.3555 -90.6013 142 147 134 -0.255649 0.466903 0.846549 
-3.60778 -12.4844 -85.5926 72 101 75 0.395666 0.235621 0.887655 
-2.88303 -11.0915 -90.77 107 114 108 0.183026 -0.0268127 0.982742 
-4.51112 -12.1519 -91.0692 138 141 129 0.149627 0.0718683 0.986127 
-3.01437 -14.7441 -90.9523 83 93 81 0.169645 0.216988 0.96132 
-4.43822 -12.7885 -85.3002 120 144 121 0.275692 0.734648 0.619909 
-0.656251 -14.2619 -90.849 120 114 118 0.0765711 0.239756 0.967809 
-4.30782 -12.6331 -85.4772 146 176 147 0.181662 0.526971 0.830241 
-3.76476 -14.7159 -91.2204 96 95 93 0.184846 -0.127003 0.974527 
-2.81383 -11.2597 -90.8821 165 160 160 0.385701 -0.0516918 0.921175 
-0.142869 -11.5594 -90.9333 99 101 98 0.186982 0.235408 0.95374 
-0.499882 -11.7978 -90.9961 87 94 84 0.359419 0.648267 0.671244 
-1.106 -15.0206 -90.5908 156 148 155 0.0203038 0.496765 0.867647 
-3.00142 -12.4662 -89.0364 69 89 66 0.158795 0.461817 0.872645 
-1.34051 -14.876 -90.3081 170 162 167 -0.31584 0.761544 0.565947 
-4.07241 -12.042 -90.914 143 139 135 0.232566 0.102939 0.967118 
-0.485874 -14.8175 -90.7578 123 119 125 -0.037488 0.55399 0.831679 
-3.47579 -14.2519 -91.1216 106 115 108 -0.0137209 -0.0707153 0.997402 
-1.8361 -11.4071 -90.0673 84 98 76 0.348529 0.672515 0.652879 
-1.86678 -11.7514 -89.6646 122 150 112 -0.30402 0.946577 0.107535 
-0.90535 -14.5169 -90.6876 111 104 111 0.367483 0.318688 0.873724 
-0.0087204 -12.2934 -90.4791 98 94 93 -0.0437242 0.613549 0.788445 
-4.3447 -12.3734 -85.3714 138 168 139 0.265139 0.491514 0.829527 
-5.85522 -14.7692 -91.0273 121 125 105 0.238194 -0.151338 0.959354 
-0.760803 -11.7588 -90.6014 99 110 94 0.382214 0.579063 0.720138 
-5.49755 -16.3292 -91.323 170 167 155 0.552073 0.219907 0.804274 
-4.66445 -13.38 -91.0607 97 111 96 0.35014 0.0088483 0.936656 
-2.47929 -12.0905 -89.4697 42 63 42 -0.252156 0.947289 0.197636 
-1.01128 -11.168 -90.618 111 110 105 0.0345665 0.336703 0.940976 
-0.94286 -11.3271 -90.6166 69 72 63 0.364818 0.600396 0.711641 
-2.00217 -12.5351 -89.4666 52 66 53 0.452342 0.525247 0.720765 
-2.78046 -12.3095 -89.2519 51 72 52 0.153182 0.894756 0.419461 
-2.89344 -12.3373 -89.0715 74 95 75 0.059272 0.931229 0.359583 
0.052557 -12.3742 -90.6056 133 126 131 0.250069 0.149512 0.956614 
-0.744266 -14.5783 -90.8373 115 110 115 -0.124167 0.541951 0.831187 
-1.69486 -11.6347 -89.7068 107 138 98 0.285581 0.152942 0.946072 
-7.56281 -16.585 -90.5966 94 87 98 0.352001 -0.0243201 0.935683 
0.281742 -12.3096 -90.4896 88 80 86 -0.0264121 0.585236 0.810433 
-3.48432 -12.8654 -85.3245 123 146 125 0.689722 0.199942 0.695922 
-2.93085 -12.1418 -89.6433 97 125 94 0.059361 0.929989 0.362762 
-4.95837 -12.0653 -91.1245 134 139 125 0.320705 0.00873514 0.947139 
-3.88129 -15.9232 -91.1585 134 135 109 0.29524 0.0494178 0.954144 
-7.06374 -12.8069 -90.5333 142 164 127 0.315696 0.0579849 0.947087 
-5.35847 -15.2783 -91.1328 149 149 136 0.0120204 0.11474 0.993323 
-6.28076 -12.6208 -90.5955 123 142 108 0.431012 0.0990351 0.896895 
-2.12114 -15.4105 -91.0962 161 158 150 0.187688 -0.00806022 0.982196 
-4.81592 -11.8802 -91.1142 197 200 191 0.204682 0.027212 0.97845 
-6.19764 -13.1142 -90.7695 88 108 76 0.133698 0.464348 0.875503 
-3.12187 -13.1294 -85.3648 105 131 103 0.272381 0.0385562 0.961417 
-4.07697 -14.7986 -91.2218 108 114 103 0.430697 0.283555 0.856795 
-0.0243435 -13.4888 -90.9613 94 92 91 0.217381 0.0650914 0.973914 
-2.28304 -11.1346 -90.1463 125 134 122 0.127095 0.881095 0.455542 
0.191196 -12.6478 -90.5528 111 102 111 0.322231 0.278089 0.904894 
0.572014 -13.1985 -91.211 40 35 39 0.345873 0.569959 0.745331 
-2.53797 -14.4718 -90.7724 52 70 51 0.441376 0.0118579 0.897244 
-2.24993 -10.9285 -90.3386 129 130 128 0.1529 0.87226 0.464526 
-3.67733 -13.1757 -85.4869 151 178 153 0.682402 0.196519 0.704065 
-7.98648 -13.0965 -90.4945 109 103 111 0.25638 -0.00842562 0.966539 
-0.0624533 -11.8721 -90.893 158 155 159 0.177334 0.203606 0.962859 
-2.44124 -12.6754 -88.8764 103 123 108 0.0410495 0.638391 0.768617 
-1.41518 -12.7138 -90.4329 71 76 64 0.3746 -0.185147 0.908513 
-6.89371 -14.2505 -90.2316 132 136 123 0.306935 -0.0341039 0.951119 
-0.273393 -11.8183 -90.9412 150 151 148 -0.0260784 0.531175 0.846861 
-6.17665 -13.9652 -90.7146 148 168 133 0.240535 -0.015557 0.970516 
-6.84554 -12.7767 -90.2692 132 154 117 0.360069 0.562099 0.744577 
-6.65104 -13.7991 -90.4382 109 127 97 0.307384 0.295618 0.904503 
-3.42384 -13.7711 -91.097 50 57 57 0.0799837 -0.316001 0.945381 
1.80988 -14.3748 -91.0426 123 120 119 0.0779763 -0.169149 0.982501 
-0.225504 -12.1738 -90.7256 131 129 124 -0.10431 0.642023 0.759556 
0.147033 -11.936 -90.8689 160 153 162 0.0282838 0.47005 0.882186 
-8.65819 -13.102 -90.2335 105 100 110 0.25186 0.0132558 0.967673 
-7.09778 -12.8459 -90.6049 115 133 101 0.203249 0.328325 0.922438 
-4.16309 -16.1249 -91.211 117 121 98 0.16916 -0.298437 0.939319 
-1.63355 -12.2343 -89.8465 38 58 39 0.470298 -0.712925 0.520152 
-5.54402 -13.9939 -91.1333 122 134 113 0.364928 0.0166458 0.930887 
-0.12311 -11.6753 -91.0833 95 95 95 -0.130048 0.65323 0.745908 
-6.85052 -14.7222 -90.9166 151 155 133 0.618211 0.0585373 0.783829 
-7.06308 -16.6435 -90.7108 117 111 116 0.630198 0.123074 0.766618 
-8.00721 -13.357 -90.4146 101 96 102 0.426013 0.448691 0.785614 
-8.26061 -12.5297 -90.3591 88 84 93 0.136272 0.138727 0.98091 
-2.90836 -15.2284 -91.1888 124 129 116 -0.381775 0.163212 0.909731 
0.124136 -12.2781 -90.6993 130 121 129 0.0499853 0.436358 0.898384 
-0.607376 -14.2919 -90.8156 141 135 138 0.00925587 0.450893 0.89253 
-3.34917 -11.6504 -91.1171 144 141 138 0.192212 0.102926 0.975941 
-7.18346 -14.0649 -90.4389 124 124 121 0.232727 -0.304116 0.92377 
-7.60996 -14.6441 -90.6612 105 101 109 0.401287 -0.038407 0.915147 
1.10596 -13.4622 -91.2838 100 98 99 0.102459 0.315362 0.943424 
-4.5498 -13.2405 -90.9687 172 184 161 0.206149 0.1012 0.973273 
0.186074 -12.4139 -90.6369 99 90 99 0.0499853 0.436358 0.898384 
0.24221 -13.0449 -90.6902 104 96 103 0.412177 0.0331332 0.910501 
1.36932 -14.4267 -91.0172 124 116 122 -0.132703 0.08338 0.987642 
-7.0341 -14.6482 -90.7082 102 106 99 0.204176 -0.0105005 0.978878 
0.0422401 -12.4503 -90.5151 117 108 112 0.0500474 0.439606 0.896795 
0.865689 -10.6276 -90.8028 112 108 110 0.159311 -0.0286531 0.986813 
-8.2765 -14.1908 -90.3705 133 125 136 0.495791 0.0285249 0.867973 
-0.57459 -11.437 -90.9973 103 106 98 0.066161 0.533511 0.843201 
-7.38985 -15.6604 -90.8754 131 125 130 0.400735 0.0275916 0.915778 
-8.76569 -14.0318 -90.0477 144 135 146 0.347456 0.0294889 0.937233 
0.247986 -12.5488 -90.5728 106 96 107 0.0499853 0.436358 0.898384 
0.260385 -11.3244 -90.998 97 93 95 -0.0670322 0.58047 0.811518 
0.722063 -11.3805 -90.9393 124 115 122 -0.155299 0.625719 0.764433 
-1.36738 -11.1346 -90.5972 135 129 127 -0.0123663 0.575722 0.817552 
-3.85014 -12.7237 -85.4205 119 150 120 0.372545 0.220605 0.901412 
-2.1482 -12.2054 -89.4766 139 160 137 0.440878 0.520137 0.731494 
-3.40487 -14.4936 -91.1601 106 112 109 -0.0138016 -0.077501 0.996897 
-5.46344 -12.8896 -91.0041 130 137 119 0.280194 0.0490026 0.958692 
-8.278 -13.508 -90.3975 108 100 111 0.456319 0.241046 0.856545 
-1.69874 -11.6571 -89.754 102 131 93 -0.201238 0.86607 0.457631 
0.741889 -11.5518 -90.7991 125 116 125 -0.236343 0.602597 0.762246 
0.808879 -11.2926 -90.9148 117 109 114 -0.155299 0.625719 0.764433 
-6.3474 -14.8319 -91.0242 143 148 129 0.310282 0.00618091 0.950625 
-3.7579 -12.4548 -86.7034 52 65 44 0.173096 0.859562 0.480822 
-4.18537 -12.847 -91.0949 177 184 165 0.250719 0.0354676 0.96741 
-8.50461 -14.3554 -90.2138 89 82 93 0.433898 -0.144633 0.889277 
-6.0238 -15.063 -90.9924 161 163 140 0.388069 -0.403908 0.828408 
0.804052 -11.6756 -90.7086 132 123 132 -0.3528 0.577161 0.73649 
0.844273 -11.5974 -90.7528 113 105 114 -0.1891 0.65647 0.730266 
0.986917 -11.4805 -90.7359 92 85 93 -0.269285 0.651701 0.709064 
-6.82978 -14.0465 -90.5327 128 142 119 0.23417 -0.293777 0.926747 
-3.21089 -12.0754 -89.6958 103 133 97 0.137549 0.900447 0.412646 
-4.83262 -15.1566 -91.0689 124 127 111 0.0413322 -0.187766 0.981344 
-7.01749 -14.2919 -90.8606 85 88 81 0.238347 0.00355741 0.971174 
-4.62176 -12.5018 -85.4219 88 111 88 -0.0229449 0.875957 0.481844 
-6.50238 -13.2073 -90.6175 104 125 90 0.205264 0.388692 0.898212 
-4.83251 -14.0248 -91.1751 107 117 103 0.30072 0.00122743 0.953712 
-4.32954 -16.1387 -90.8336 144 151 116 0.226519 0.53779 0.812078 
-6.77824 -13.3974 -90.1491 147 168 133 0.0632014 -0.0374923 0.997296 
1.1606 -11.8558 -90.6279 118 112 119 -0.0817607 0.563719 0.82191 
1.05565 -12.1404 -90.6054 130 125 132 -0.133411 0.535108 0.834183 
-6.03785 -15.8945 -91.3027 178 177 163 0.584709 0.151037 0.797059 
-1.49815 -13.9014 -90.8105 150 153 150 0.0825541 0.385704 0.918922 
-6.64289 -13.884 -90.8666 105 118 94 0.0633954 -0.408698 0.910465 
0.997734 -11.9906 -90.5701 137 130 136 0.411886 0.101238 0.905594 
-6.88882 -13.1094 -90.5781 104 125 91 0.267522 0.378118 0.886261 
-3.11876 -14.412 -91.0932 99 109 100 0.0896439 -0.0782966 0.992892 
-3.11801 -13.4703 -89.6841 56 69 58 0.333653 0.0319591 0.942154 
-3.95214 -14.4953 -91.1379 131 131 125 0.218492 -0.0274607 0.975452 
-8.87677 -13.1488 -90.1072 91 84 93 0.305795 0.0524585 0.950651 
1.0077 -11.1381 -90.8898 121 114 120 -0.248293 0.700596 0.668966 
0.803699 -11.1408 -90.9912 112 105 110 -0.220497 0.680257 0.699022 
-6.17551 -15.8248 -90.7768 172 169 158 0.0555191 0.624946 0.778691 
-6.22958 -15.7115 -90.824 166 164 149 0.135476 0.608899 0.781594 
1.00161 -13.5354 -91.3117 128 122 126 0.0120095 0.471039 0.882031 
-7.17539 -14.5493 -90.7057 91 89 90 0.254596 -0.300624 0.919133 
-8.04436 -13.871 -90.4599 109 101 111 0.465658 0.0505259 0.883521 
-2.92283 -11.7496 -89.9922 62 93 60 -0.00948093 0.846511 0.532286 
-0.867285 -10.6086 -91.1585 128 127 122 0.20865 -0.00582821 0.977973 
-7.72412 -12.8397 -90.6498 105 106 104 0.341401 0.0373609 0.939175 
-4.02417 -13.2902 -91.0656 128 130 125 0.200474 0.452922 0.868719 
-4.01734 -14.4802 -91.178 107 112 106 -0.0539615 -0.193062 0.979702 
-7.09084 -14.2239 -90.9205 120 123 113 0.24844 0.0132021 0.968557 
-1.75905 -12.7945 -90.4502 38 48 43 0.450944 -0.325245 0.831183 
-7.32684 -14.4953 -90.7305 131 126 131 0.185042 -0.010344 0.982676 
-1.53432 -14.6361 -90.7374 104 95 102 0.28467 0.435468 0.854009 
-7.93784 -14.5179 -90.5257 122 117 126 0.345555 0.124291 0.930131 
-6.95933 -14.5371 -90.8648 120 122 109 0.224515 0.00352641 0.974464 
-2.82647 -14.6695 -91.1802 66 78 64 0.133027 -0.0397944 0.990313 
-1.82213 -10.8994 -90.1992 110 106 107 0.00648193 0.913953 0.405769 
-9.07123 -13.013 -90.0018 129 121 132 0.176992 0.0758539 0.981285 
-6.57955 -15.266 -90.8848 127 129 113 0.58972 0.0850696 0.803115 
-2.9148 -11.8913 -90.1622 96 118 94 0.100818 0.910121 0.40189 
1.1234 -14.0532 -91.0877 107 101 105 0.0540632 0.505976 0.860852 
-5.56644 -15.156 -91.1055 117 118 104 -0.016466 0.113067 0.993451 
-7.10309 -14.9704 -90.9038 100 101 95 0.413312 -0.0578906 0.908747 
-4.48061 -15.7647 -91.1182 149 152 132 0.0169466 -0.00299058 0.999852 
-3.58521 -12.6747 -87.7696 148 150 135 -0.117249 0.920061 0.373818 
-8.0686 -14.7769 -90.6143 92 86 96 0.0353478 -0.0653399 0.997237 
-4.27188 -13.2692 -85.424 128 152 126 0.203908 0.228214 0.952019 
-4.96365 -15.8649 -90.9778 183 184 164 0.462071 0.435947 0.772296 
-5.19751 -14.8459 -91.1221 166 166 151 0.426711 0.202282 0.881476 
-3.80322 -12.5355 -91.0338 148 167 138 0.282573 0.0439559 0.958238 
-3.48533 -12.9437 -85.6491 119 151 120 0.599311 -0.00964408 0.800459 
-2.93293 -12.421 -85.5996 90 111 86 0.167507 0.253271 0.952783 
-8.36773 -13.087 -90.373 97 90 100 0.522769 0.133255 0.841995 
-5.78652 -15.0393 -91.1427 84 87 69 0.0965853 0.0184489 0.995154 
-7.23434 -13.8908 -90.7186 125 127 121 0.350361 0.0191106 0.93642 
-8.24346 -14.0869 -90.3734 87 81 91 0.329039 0.0371289 0.943586 
-6.60803 -13.6187 -90.6581 120 141 104 0.117799 -0.144516 0.982466 
-4.03025 -13.1739 -91.1356 110 117 110 0.230389 0.0202933 0.972887 
-0.117491 -13.7586 -90.9296 151 143 145 0.193451 0.359676 0.912803 
-2.98307 -12.8073 -85.3657 106 131 103 0.444884 -0.0557806 0.893849 
-7.39655 -15.4817 -90.775 108 105 110 0.212084 0.0371447 0.976545 
-4.02337 -12.2794 -91.0787 149 154 139 0.290546 0.0286805 0.956431 
-1.82702 -14.7991 -90.6233 141 136 139 -0.112009 0.554227 0.824795 
-7.22756 -12.5843 -90.5392 145 162 131 0.0140723 0.367159 0.930052 
-4.60485 -15.6804 -91.1127 139 142 123 0.183293 -0.0610977 0.981158 
-2.77859 -12.9056 -85.6676 115 133 108 0.491514 -0.265139 0.829527 
1.16784 -12.1718 -90.9404 109 103 108 0.494074 0.0539744 0.867743 
-4.5807 -15.0816 -90.8997 121 126 107 0.446134 0.210384 0.869887 
-2.84953 -11.8066 -89.9086 44 77 42 -0.0376777 0.816349 0.576329 
-2.72472 -11.0598 -90.8105 144 139 139 0.32011 -0.0718614 0.944651 
-2.19392 -15.1846 -91.1594 146 153 141 -0.250237 0.599624 0.760153 
-2.0643 -15.4501 -91.052 167 162 157 -0.140189 0.538621 0.830804 
-1.9122 -15.1435 -90.7345 116 112 107 -0.134079 0.546628 0.826572 
-2.42083 -15.0805 -91.023 119 123 112 -0.383087 0.274921 0.881852 
-2.34208 -15.273 -91.1199 158 166 150 -0.238782 0.588371 0.77253 
-6.58485 -12.4593 -90.7589 105 124 87 0.301471 0.434427 0.848757 
-2.06167 -15.589 -91.1235 152 147 141 -0.0824123 0.46514 0.881392 
0.609478 -11.8749 -90.5668 132 123 132 0.346145 0.0671232 0.935777 
-3.93784 -13.582 -85.4735 133 153 130 0.386554 0.241411 0.890111 
-4.47012 -12.6802 -90.9561 175 178 162 0.151492 0.589469 0.793458 
-3.67579 -12.1126 -85.6118 124 149 123 0.312229 0.648726 0.694023 
-3.71767 -12.6602 -85.3874 123 155 122 0.182589 0.250215 0.950817 
-2.57915 -15.6843 -91.0824 161 161 148 -0.14308 0.538396 0.830457 
-1.6332 -10.623 -90.7237 127 117 123 0.277726 0.408242 0.869601 
-2.53706 -12.1442 -89.4373 54 75 54 0.0647395 0.931456 0.358049 
-6.34621 -13.5012 -90.2531 119 145 107 0.598461 0.168175 0.783302 
0.796341 -13.366 -91.1941 113 108 112 0.324024 0.525142 0.786915 
-1.61731 -12.7411 -90.5749 30 38 36 0.527399 -0.415676 0.740988 
0.603868 -12.2351 -90.664 86 78 87 -0.122023 0.475173 0.87139 
-3.88787 -13.1387 -85.5416 128 157 127 0.29833 0.377078 0.876819 
0.868895 -12.2708 -90.6241 95 90 96 -0.0938708 0.570445 0.815954 
-4.28411 -16.2219 -90.8304 116 122 87 0.130514 0.108961 0.985441 
-6.08542 -14.8897 -90.9823 144 151 123 0.289235 0.0467323 0.956117 
-6.88501 -16.4156 -90.7722 130 130 126 0.658914 0.0295036 0.75164 
-1.19195 -14.6902 -90.7356 74 67 70 -0.085382 0.471701 0.877615 
-4.73363 -16.0022 -91.0537 180 180 155 0.112598 -0.213809 0.970365 
-4.21857 -13.4141 -91.1162 147 154 139 0.330275 -0.114585 0.936904 
-0.889553 -11.5906 -90.5829 108 121 105 0.326542 0.638463 0.696948 
-3.22989 -14.5465 -91.1606 150 155 150 0.152911 -0.0356409 0.987597 
-3.33647 -15.8715 -91.3219 98 100 89 0.166684 -0.482352 0.859973 
1.14442 -11.1934 -90.6549 102 95 101 -0.03282 0.389901 0.920272 
-5.28377 -15.7111 -91.16 98 99 87 -0.0381717 -0.0839778 0.995736 
-4.82083 -13.7507 -91.052 75 86 76 0.122433 -0.48541 0.865672 
-0.38061 -11.5036 -90.7817 111 118 110 -0.0107024 0.236641 0.971538 
-0.218452 -10.3661 -91.1693 119 122 111 -0.0270352 -0.0854313 0.995977 
-0.923302 -11.5743 -90.7901 90 97 84 0.495909 0.590048 0.637117 
-1.25446 -11.6329 -90.2254 83 104 75 0.485411 0.606344 0.629859 
-4.20953 -15.4976 -91.1933 124 126 111 0.170477 -0.0505553 0.984064 
-0.794891 -11.8455 -90.8158 109 116 100 0.495909 0.590048 0.637117 
-3.32 -12.8712 -85.4254 110 142 110 -0.111869 0.457386 0.882204 
-0.642937 -11.8191 -90.9746 122 126 116 0.51139 0.599154 0.616031 
-5.5513 -13.7721 -91.0339 81 93 69 0.239443 0.0083388 0.970875 
0.596599 -14.6654 -90.8959 139 137 139 0.136446 0.0077652 0.990617 
-6.23412 -15.3469 -91.1253 121 123 106 0.0936846 0.310083 0.946082 
-0.285648 -11.2491 -90.8497 75 77 70 -0.131479 0.565804 0.81399 
0.995316 -14.2032 -90.8706 136 130 134 -0.0948396 0.337949 0.936374 
-7.83252 -14.452 -90.589 109 105 113 0.392587 0.0436208 0.91868 
-4.23637 -12.6725 -85.3776 104 134 103 0.239174 0.764418 0.598716 
-0.30792 -12.3476 -90.5589 130 128 119 -0.101367 0.639052 0.762455 
-3.31823 -12.4627 -85.5243 80 107 79 0.693883 0.203353 0.690778 
-7.67052 -14.2797 -90.5938 109 105 113 0.380005 0.0220481 0.924722 
-0.515561 -12.2836 -90.5426 111 112 100 -0.101367 0.639052 0.762455 
-0.67999 -12.8967 -90.6599 139 127 127 -0.0262482 0.556739 0.830273 
-4.90367 -15.8007 -91.1613 144 145 130 -0.0116539 -0.0773394 0.996937 
-5.41453 -15.9221 -91.1863 140 139 129 -0.0138038 -0.0753899 0.997059 
-0.597636 -12.7792 -90.9234 165 161 152 -0.0233795 0.554231 0.832034 
-0.657838 -13.2153 -90.8635 150 136 138 -0.0405292 0.574397 0.817573 
-1.69857 -12.1869 -89.8068 107 133 100 0.599126 0.468224 0.649472 
0.550266 -10.4616 -90.8067 83 84 81 0.259223 -0.0108512 0.965756 
-1.80656 -12.8581 -90.1229 52 65 52 0.407621 -0.388588 0.826344 
-4.82729 -14.3405 -91.155 150 157 138 0.234263 0.553855 0.798978 
-0.810345 -13.3297 -90.9177 162 150 152 -0.0988069 0.514082 0.852031 
-7.08088 -15.1402 -90.7556 105 104 103 0.560779 0.169888 0.810349 
-1.2072 -11.7406 -90.5248 97 117 88 0.350574 0.0269672 0.936147 
-4.49581 -13.0945 -91.151 124 133 120 0.392587 0.0436208 0.91868 
-7.93906 -14.38 -90.5156 131 124 134 0.360021 0.152694 0.920364 
-1.23127 -13.1749 -90.9007 103 98 94 0.167899 -0.0148482 0.985692 
-1.03944 -12.1804 -90.3923 46 58 46 0.499322 -0.556483 0.664081 
-0.85185 -15.1585 -90.6248 107 101 106 -0.100136 0.466832 0.878659 
-2.37804 -12.8136 -88.8221 104 122 108 0.00973136 0.671464 0.740973 
-5.98642 -14.0137 -90.8656 118 133 100 0.185703 -0.0268627 0.982239 
-3.16181 -11.3761 -91.0538 182 175 178 0.0634809 0.41195 0.908992 
-6.59149 -12.2104 -90.7734 146 163 125 0.126359 0.376301 0.91784 
-2.29778 -14.8402 -90.9507 124 132 121 -0.5529 0.173252 0.815037 
-4.59893 -14.8301 -91.0765 125 132 118 0.0924194 -0.0523339 0.994344 
-6.43005 -15.9631 -91.0585 108 109 95 0.627307 0.16556 0.76097 
-6.22669 -15.5704 -91.203 142 144 131 0.137249 -0.125103 0.982605 
-4.2234 -15.535 -91.2007 127 130 113 0.0830047 -0.0564432 0.994949 
-5.26118 -14.0837 -91.1487 177 183 165 0.108461 0.380298 0.918482 
-8.59435 -14.0017 -90.2054 98 90 102 0.347717 0.0481855 0.936361 
-7.87845 -12.9384 -90.4995 129 125 129 0.297652 0.0682924 0.952229 
