ply
format ascii 1.0
comment Created by CloudCompare v2.11 alpha (Anoia)
comment Created 15/10/2019 14:55
obj_info Generated by CloudCompare!
element vertex 719
property float x
property float y
property float z
property uchar red
property uchar green
property uchar blue
property float nx
property float ny
property float nz
end_header
-6.73269 -1.7343 -90.7033 130 126 115 -0.107743 0.677452 0.727633 
-2.58155 -0.40118 -90.557 98 105 91 0.265985 -0.0642902 0.961831 
-7.31789 -4.58097 -90.7648 159 164 151 0.0659726 0.399875 0.914192 
-5.85241 -3.85496 -90.7522 111 113 111 -0.164448 0.146873 0.97539 
-5.8458 -4.49098 -90.598 111 112 110 0.240543 -0.013164 0.970549 
-3.50587 -0.245073 -86.5997 90 115 82 0.274681 0.03853 0.960763 
-11.0101 -3.57735 -89.9368 85 86 88 0.256431 0.167821 0.951882 
-9.28105 -0.62024 -90.6483 186 184 171 0.0284358 0.149003 0.988428 
-4.2943 -1.27132 -85.8507 113 135 106 0.184684 0.146474 0.971822 
-9.23724 -5.33831 -90.8231 126 132 116 0.231763 0.0400428 0.971948 
-7.87179 -1.06143 -90.561 96 131 77 0.3507 -0.15509 0.923556 
-3.56918 -1.64768 -86.1671 101 118 97 0.0483737 0.178157 0.982812 
-7.06849 -1.37228 -90.723 152 151 140 0.389222 -0.189547 0.901431 
-2.4336 -1.14951 -90.3776 97 97 99 0.220508 0.683418 0.695929 
-11.079 -1.40636 -90.2149 115 109 118 0.246602 0.476356 0.843962 
-6.54233 -4.29072 -90.8593 137 138 130 0.106229 0.332132 0.937232 
-11.4512 -1.37355 -90.0788 125 116 128 0.238699 0.469796 0.849891 
-8.21295 -1.9324 -90.8827 119 128 104 0.125468 -0.0395619 0.991309 
-8.47393 -1.92494 -90.8159 156 169 138 0.216141 0.205401 0.954512 
-9.70763 -2.53949 -85.1273 127 157 128 0.141329 0.584654 0.798878 
-3.17348 -1.23629 -86.3398 99 109 95 0.0421819 0.218141 0.975005 
-5.29932 -2.94764 -90.7961 85 91 86 -0.00903525 0.391097 0.920305 
-6.01769 -2.93887 -90.3783 116 122 111 -0.457288 0.174975 0.871935 
-8.19204 -5.0691 -90.6983 80 86 77 0.27744 -0.00121153 0.960742 
-10.7027 -4.47339 -90.0518 128 125 130 0.208646 0.00815936 0.977957 
-4.44269 -1.01439 -85.8492 116 137 108 0.285453 0.00121469 0.958392 
-10.4824 -3.35246 -90.22 115 122 110 0.294206 0.0312985 0.95523 
-11.2653 -3.8028 -89.8722 102 100 104 0.33926 0.112186 0.933979 
-3.41574 -2.44137 -90.6979 62 64 72 0.142908 -0.0400144 0.988927 
-8.62624 -3.24615 -90.6109 97 101 89 0.373569 0.0406338 0.926712 
-7.74251 -3.04685 -90.8748 120 121 111 0.114687 0.32787 0.937736 
-8.59075 -5.17831 -90.7877 64 65 57 -0.00998363 -0.136443 0.990598 
-10.6391 -1.96442 -90.2565 125 125 122 0.352001 0.0243201 0.935683 
-6.09748 -1.93374 -90.4385 69 76 71 0.162477 -0.106282 0.980972 
-5.72216 -0.09338 -90.215 138 143 135 -0.166913 -0.164365 0.972175 
-8.42554 -3.62448 -90.7706 75 82 72 0.526831 -0.411946 0.743472 
-8.5774 -5.2113 -90.8239 70 78 62 0.286225 0.0466534 0.957026 
-8.74686 -1.16664 -90.6243 140 150 123 0.00555544 0.141108 0.989979 
-0.937038 -2.54057 -90.409 122 120 115 0.0870304 0.535023 0.840343 
-8.61005 -2.19138 -90.6814 142 147 128 0.278141 0.238608 0.930432 
-7.36659 -5.09 -90.8344 91 99 91 -0.0293373 0.613289 0.789313 
-6.44764 -1.88677 -90.4372 140 143 128 0.0915544 0.141493 0.985696 
-3.43578 -1.9475 -90.6049 76 81 82 0.0775031 0.0116786 0.996924 
-11.3536 -2.09605 -89.8181 107 96 111 0.354641 0.0428688 0.934019 
-6.04269 -1.05486 -90.5742 148 143 145 -0.075584 0.554758 0.828572 
-6.1305 -1.33282 -90.5994 126 123 121 0.0885201 0.323693 0.942012 
-3.47325 -1.39524 -90.6135 54 60 52 0.050942 -0.181259 0.982115 
-9.97448 -2.31021 -85.0587 127 152 128 0.549999 0.0431645 0.834049 
-6.69141 -3.51124 -90.9917 99 105 92 0.135252 0.106526 0.985068 
-9.76972 -3.3833 -90.1444 72 83 67 0.536274 0.486155 0.689973 
-7.68248 -3.9627 -90.8838 95 103 93 0.0732366 0.358194 0.930771 
-1.645 -0.989359 -90.5048 87 91 92 0.150322 -0.0355725 0.987997 
-9.78156 -3.03709 -84.9364 79 102 81 0.211458 0.51267 0.832139 
-8.70756 -5.16467 -90.6229 96 93 83 0.460108 0.0999011 0.882225 
-10.3292 -4.7293 -90.1407 96 95 100 0.386406 0.0713571 0.919564 
-9.89328 -3.96759 -85.0543 109 116 111 0.0852684 0.60266 0.79343 
-5.17009 -1.54881 -90.6674 52 58 56 0.182641 -0.310909 0.932726 
-7.69265 -4.07922 -90.9755 98 106 96 -0.0320918 0.584628 0.810666 
-9.06242 -3.80701 -85.2785 98 123 97 0.849594 0.28217 0.445613 
-2.82327 -1.41388 -90.439 59 61 60 0.584795 0.246147 0.772933 
-9.57237 -3.21513 -90.2731 59 71 52 0.186646 0.35477 0.916134 
-11.268 -3.7154 -89.9072 87 86 89 0.373533 0.153642 0.914804 
-5.75924 -1.28205 -90.5619 65 64 60 0.108937 0.390243 0.914244 
-5.52575 -0.959042 -90.648 136 133 133 0.236255 0.195754 0.951769 
-8.94508 -2.3252 -90.7154 135 141 122 0.161652 0.511649 0.843851 
-3.92888 -2.8797 -90.6136 43 43 50 0.0735536 -0.0559886 0.995718 
-2.56441 0.530945 -90.8082 86 83 85 0.3528 0.577161 0.73649 
-3.88786 -1.18548 -90.194 91 103 91 0.547766 0.118318 0.828223 
-3.69129 -1.62239 -90.641 97 108 95 0.525112 0.0958651 0.845616 
-2.87304 -3.4628 -90.5388 130 122 130 0.284586 -0.0310683 0.958147 
-10.72 -2.87594 -90.0436 76 77 78 0.191415 0.11635 0.974589 
-7.94914 -0.669189 -90.4503 138 177 120 0.356975 -0.248267 0.900518 
-5.52426 -4.11779 -90.5565 127 123 124 0.289971 0.310578 0.905239 
-5.69471 -1.45742 -90.581 87 87 81 0.14162 0.336863 0.930842 
-6.92485 -3.94922 -90.9614 122 124 117 -0.0805991 0.214518 0.973389 
-11.4181 -4.6544 -89.7613 107 100 109 0.413372 0.0777631 0.907236 
-3.80589 -2.17929 -90.4772 93 93 95 0.285568 0.0440304 0.957346 
-4.25929 -2.41947 -90.5116 43 45 48 0.0582052 -0.0264569 0.997954 
-8.22735 -4.89089 -90.7814 61 63 59 0.00124578 0.332624 0.943059 
-7.07867 -1.98574 -90.77 153 153 142 0.370724 0.00636983 0.928721 
-11.8034 -2.35693 -89.7606 107 101 110 0.279687 0.0234099 0.959806 
-0.851978 -3.37653 -90.8481 124 128 113 0.283284 0.315575 0.905628 
-10.3106 -2.51241 -85.2681 167 192 168 -0.0323672 0.769776 0.637493 
-1.68414 -2.42187 -90.7183 106 107 108 0.180357 -0.0267627 0.983237 
-9.27014 -4.82766 -90.572 86 93 77 0.30106 -0.0576497 0.951861 
-3.09315 0.179218 -90.5151 124 127 117 0.405593 0.405593 0.819139 
-7.03736 -3.58662 -90.8828 138 138 126 0.189352 0.121637 0.974346 
-5.17963 -1.36787 -90.6694 105 107 100 0.0288705 0.537541 0.842743 
-3.90931 0.260559 -90.7291 116 115 113 -0.25405 0.626446 0.736902 
-7.83137 -3.01154 -90.78 145 142 131 0.144362 0.491413 0.858879 
-5.64837 -3.19387 -90.9084 83 89 77 0.00129396 0.415362 0.909655 
-7.62538 -0.68235 -90.5562 68 88 61 0.385308 -0.300022 0.872654 
-0.843516 -3.05679 -90.9794 119 120 114 0.0266114 -0.0670606 0.997394 
-1.40246 -2.16701 -90.5618 128 124 124 0.275311 0.0411099 0.960476 
-9.06215 -4.12657 -90.4121 85 92 71 0.456874 0.0969979 0.884227 
-10.3427 -2.81316 -84.8759 113 130 118 0.183068 0.437898 0.880189 
-11.6681 -1.35594 -89.9322 103 98 107 0.217603 0.190903 0.957186 
-9.65593 -4.1534 -90.2024 95 104 90 0.41164 -0.373788 0.831165 
-7.47028 -3.13094 -90.9147 137 139 130 0.16421 -0.00792739 0.986394 
-10.0353 -1.3933 -90.583 165 162 150 0.377759 0.0246647 0.925575 
-8.80234 -4.86824 -90.6992 119 122 106 0.229169 0.0551476 0.971823 
-5.89416 -0.145367 -90.3084 138 136 135 -0.0519061 0.141877 0.988523 
-7.53867 -2.93209 -90.8524 133 132 122 -0.0392902 0.459289 0.887417 
-8.66485 -3.07389 -90.5355 79 87 68 0.187862 0.337586 0.922358 
-5.71357 -3.09838 -90.9622 65 72 64 0.377346 0.172298 0.909903 
-10.5433 -5.40931 -90.0293 63 61 62 0.472945 -0.185323 0.861382 
-7.67348 -4.19656 -90.9348 88 93 86 -0.0539006 0.496162 0.866555 
-9.39492 -4.57446 -90.5713 78 90 70 0.606686 0.354854 0.711344 
-4.18359 -1.22822 -85.9898 95 117 87 0.335142 0.029309 0.941712 
-4.34194 -1.5022 -90.0683 122 137 121 0.124147 0.5331 0.836894 
-11.3843 -4.30362 -89.9125 116 108 117 0.285462 0.155584 0.945677 
-11.2271 -4.00678 -89.8419 88 86 94 0.347919 0.00885611 0.937483 
-3.1292 -2.41444 -90.5097 38 40 48 0.108606 -0.0436662 0.993125 
-10.3983 -2.71878 -85.0064 106 121 109 -0.0151138 0.5757 0.817521 
-1.75062 0.606736 -90.8438 101 102 104 0.0716248 0.0989105 0.992515 
-4.50131 -1.28887 -85.8856 100 120 90 0.308561 0.0658436 0.948923 
-11.2872 -4.31791 -89.8332 122 117 123 0.270432 0.193558 0.943081 
-11.1825 -2.59072 -89.982 73 77 76 0.343038 0.0644018 0.937111 
-5.4973 -4.29897 -90.7105 77 82 77 0.256972 -0.010858 0.966358 
-10.9629 -3.55476 -90.0098 79 77 80 0.273877 0.111385 0.955293 
-2.06166 0.439339 -90.883 110 107 108 0.638881 0.362963 0.678298 
-6.9131 -4.60819 -90.84 151 155 142 0.242803 0.0107647 0.970016 
-5.11134 -1.77136 -90.5924 85 93 89 0.25527 -0.301421 0.918685 
-9.7712 -2.82887 -84.9694 103 127 105 0.193451 0.359676 0.912803 
-11.3929 -3.29983 -89.8106 123 120 124 0.342195 0.0642435 0.93743 
-6.19929 -3.69178 -90.686 141 144 138 -0.193491 0.056485 0.979475 
-5.77832 -3.48699 -90.6991 55 57 59 0.316137 0.0239307 0.948412 
-7.64346 -0.968884 -90.7779 135 153 115 0.133085 0.388047 0.91198 
-8.26299 -0.534908 -90.4765 106 149 87 0.373818 -0.117249 0.920061 
-4.77782 -3.51318 -90.6917 119 113 123 0.33086 0.232614 0.914561 
-3.37572 -3.14614 -90.3734 117 110 123 -0.0219989 -0.0534258 0.998329 
-6.53065 -1.4966 -90.6858 125 127 115 0.254721 -0.545385 0.798544 
-7.98949 -1.46748 -90.783 116 146 100 0.339896 -0.0533936 0.938946 
-6.02496 -0.827572 -90.5119 114 117 108 0.132332 0.182744 0.974214 
-8.22438 -2.44233 -90.7437 151 151 132 0.356465 -0.0565608 0.932595 
-2.5196 -0.60503 -90.5951 93 98 88 0.651067 0.202589 0.731484 
-10.194 -2.38854 -90.4681 96 100 89 0.321324 0.0885956 0.942816 
-4.60966 -2.37211 -90.447 44 46 49 0.0114059 -0.052882 0.998536 
-11.1059 -5.51919 -89.764 113 111 113 0.357815 0.0403355 0.932921 
-8.09898 -3.98345 -90.8476 89 91 90 0.0991147 0.256154 0.961541 
-3.56401 -1.58358 -86.1343 149 165 142 0.0682102 0.173517 0.982466 
-9.26463 -5.1307 -90.1126 108 116 102 0.0986247 0.696261 0.710981 
-9.19491 -2.26566 -90.6981 163 164 147 0.151612 0.129425 0.97993 
-6.48653 -3.43884 -90.7636 61 67 59 -0.0779763 0.169149 0.982501 
-9.72474 -2.7349 -85.0091 113 139 114 0.200632 0.368066 0.907896 
-6.15232 -1.36828 -90.5023 124 122 118 0.0846789 0.442829 0.892599 
-4.73141 -3.65616 -90.6335 109 102 112 0.338995 0.226477 0.913121 
-10.2988 -4.51258 -89.8293 99 110 100 0.454065 -0.00926663 0.89092 
-4.54128 -0.1605 -90.766 158 162 148 -0.447125 0.434118 0.782062 
-6.29986 -0.342735 -90.4755 132 126 134 0.115259 0.174748 0.977844 
-9.10957 -3.67906 -85.2209 88 110 85 0.335188 0.390796 0.857279 
-4.01722 -1.85447 -86.2606 93 111 83 0.211432 -0.263944 0.941079 
-10.915 -3.9506 -90.0361 97 96 100 0.260853 0.110311 0.959055 
-9.31325 -2.82225 -85.1984 111 134 111 0.3509 -0.173336 0.920231 
-8.34509 -4.47321 -90.7494 83 85 80 0.1917 0.0818084 0.978038 
-4.346 -0.499187 -90.4137 120 123 112 -0.0176083 0.505224 0.862809 
-9.67534 -2.83323 -90.4022 85 91 70 0.212266 0.293798 0.932001 
-8.52296 -4.27094 -90.8062 73 78 64 0.0190699 0.341987 0.939511 
-2.76148 -1.47808 -90.5056 41 42 43 0.0988941 0.0738864 0.992351 
-5.17136 -0.53514 -85.4724 109 133 103 0.242796 -0.0131564 0.969988 
-3.24964 -1.61096 -90.5345 83 91 80 0.063992 -0.0488074 0.996756 
-5.76199 -2.23974 -90.4367 60 68 62 0.229265 -0.20756 0.950976 
-9.14639 -3.85213 -90.3513 58 67 46 0.46469 -0.0309793 0.884931 
-7.01454 -0.819532 -90.6128 131 131 122 -0.29527 -0.153758 0.94296 
-4.38512 -1.42222 -90.333 106 118 102 -0.0772155 0.155619 0.984795 
-8.2989 -3.44288 -90.7233 75 71 68 0.297429 0.021156 0.95451 
-10.7415 -1.56197 -90.0916 231 229 230 0.285394 0.0678291 0.956007 
-2.01241 -2.30704 -90.6322 109 108 110 0.197247 -0.199894 0.959758 
-9.33255 -5.08569 -90.5616 143 142 134 0.484905 0.134615 0.864145 
-3.45481 -0.13238 -86.8519 72 98 65 0.262221 -0.023173 0.96473 
-9.37694 -2.85997 -90.408 56 63 44 0.120104 0.436614 0.891596 
-8.9005 -4.22789 -85.007 110 141 109 0.173784 0.00340754 0.984778 
-8.90262 -1.18497 -90.6307 167 170 148 0.16937 0.238718 0.956205 
-4.5228 -1.36695 -90.3838 35 43 33 0.154592 0.047656 0.986828 
-9.26381 -4.18315 -90.424 91 99 84 0.183669 -0.0660248 0.980768 
-9.11545 -4.32657 -90.6781 66 80 58 0.255934 0.0561807 0.96506 
-10.996 -1.9222 -90.2038 147 144 148 0.253962 0.268149 0.929301 
-10.4985 -2.805 -90.3361 105 106 102 0.177721 0.185504 0.966439 
-8.35747 -3.70424 -90.7213 67 71 65 0.0473552 0.313568 0.948384 
-4.41306 -3.61456 -90.6571 91 87 96 0.165256 -0.0312022 0.985757 
-4.03427 -3.70187 -90.6187 151 145 153 -0.294538 -0.165764 0.941153 
-8.79632 -4.05066 -90.6266 61 67 53 0.0920223 -0.0498916 0.994506 
-6.46974 -0.75375 -90.4232 132 127 125 0.0212686 -0.0172175 0.999626 
-10.1759 -4.20183 -90.019 105 117 105 0.451444 -0.217473 0.865392 
-9.15035 -2.92636 -90.5645 79 90 69 0.250312 0.341068 0.9061 
-9.54998 -4.76557 -90.4661 54 56 48 0.373857 0.0515209 0.926054 
-6.88098 -4.48878 -90.8388 146 148 134 0.0475453 0.325107 0.944481 
-9.68562 -2.66719 -85.0854 91 115 95 0.460924 0.133539 0.877335 
-5.35495 -1.80605 -90.4286 114 117 110 0.00956896 0.570037 0.821564 
-11.5512 -2.98254 -89.7869 144 140 146 0.360581 0.0705195 0.930058 
-2.82574 -1.62525 -90.5568 43 46 49 0.0916876 0.0183375 0.995619 
-8.95123 -4.92747 -90.6338 132 135 123 0.256972 -0.010858 0.966358 
-8.45672 -4.61306 -90.7642 67 70 62 0.0441739 -0.125726 0.991081 
-5.00401 -0.993568 -90.599 145 146 143 0.0921908 0.411419 0.906772 
-8.79763 -3.86916 -90.7274 72 80 63 0.039266 0.19871 0.979271 
-7.06934 -1.9868 -90.7157 151 145 140 -0.234149 0.655302 0.71816 
-8.42295 -4.86164 -90.7505 113 116 107 0.201463 0.039339 0.978706 
-8.99835 -4.56944 -90.6918 105 111 96 0.258627 -0.0084204 0.965941 
-8.32093 -0.801357 -90.3923 148 188 127 0.238684 -0.0712302 0.968481 
-6.28214 -4.55954 -90.8112 129 133 120 0.288149 -0.378668 0.879534 
-10.1336 -3.69028 -89.6986 117 118 112 -0.104519 0.663917 0.740466 
-7.34823 -4.79541 -90.8639 89 92 84 0.0400652 0.229464 0.972492 
-8.22478 -2.4827 -90.7999 140 144 127 0.183707 0.357446 0.915688 
-6.06051 -0.63081 -90.4505 172 170 168 0.144152 0.219475 0.96491 
-5.43678 -0.952675 -90.6104 143 139 139 0.0924936 0.505158 0.858056 
-5.33685 -0.862579 -90.5556 145 142 142 0.130231 0.456522 0.880129 
-1.35143 -2.4169 -90.6739 114 111 109 0.270049 0.0410673 0.961971 
-3.35931 -3.54117 -90.4968 116 109 119 -0.380965 -0.160034 0.910634 
-10.1658 -2.41384 -85.1415 111 132 114 0.214952 0.425457 0.87908 
-8.78581 -3.80552 -90.5348 64 70 57 0.55188 0.00135597 0.833922 
-6.74601 -1.59565 -90.6835 155 153 141 0.115616 0.405353 0.90682 
-4.40031 -0.736622 -90.1725 67 78 62 0.258754 0.0182221 0.965771 
-8.92867 -4.17975 -90.5745 62 74 52 0.271104 0.445714 0.853136 
-4.99982 0.0166626 -90.1967 138 142 130 0.00925587 0.450893 0.89253 
-4.51772 -1.49924 -85.7997 122 142 116 0.298193 -0.39912 0.867055 
-9.40097 -3.97321 -90.2522 81 89 75 0.278164 0.486399 0.828276 
-5.17062 -1.46359 -90.4225 139 143 138 0.195779 0.350116 0.916018 
-3.88232 -0.597939 -88.1096 128 157 122 -0.025044 0.908175 0.41784 
-4.65512 -4.29702 -90.5914 91 87 92 0.298479 0.00614155 0.954396 
-4.18021 -0.0195351 -90.72 94 97 89 0.401006 0.478935 0.780907 
-3.4167 -1.64228 -87.0099 125 143 124 0.372688 -0.0820721 0.92432 
-11.6127 -2.51581 -89.8078 70 69 74 0.283577 0.0387264 0.958167 
-7.09373 -3.40149 -90.83 131 131 119 0.182001 0.00801264 0.983266 
-5.42802 -1.59713 -90.436 119 123 114 0.155557 0.460856 0.873736 
-0.972832 -3.24561 -91.1348 127 126 118 0.231692 0.35701 0.90491 
-2.05698 0.515577 -90.8538 100 100 101 0.133015 -0.0420645 0.990221 
-8.91784 -4.049 -85.1306 146 173 145 0.295621 0.060148 0.95341 
-10.2541 -3.35629 -90.0424 106 115 100 0.286175 0.192166 0.93871 
-3.86057 -1.66779 -86.1067 106 125 98 0.30511 -0.504301 0.80783 
-3.87864 -3.42404 -90.7776 52 53 60 0.390728 0.0168753 0.920352 
-4.03653 -0.409542 -90.2291 127 127 123 0.409059 0.1907 0.892359 
-5.74458 -4.28201 -90.6982 117 121 116 0.278513 -0.0516698 0.959042 
-5.41883 0.02845 -90.1457 140 140 137 -0.0143987 0.414943 0.909733 
-3.20847 -2.02799 -90.4853 112 115 114 0.197893 0.00578634 0.980207 
-9.32287 -4.86392 -90.5854 61 67 56 0.260874 -0.00601092 0.965354 
-4.18814 -2.09713 -90.0679 73 87 74 -0.252512 0.281045 0.925879 
-8.34469 -2.23971 -90.811 149 152 132 0.15182 0.35239 0.923457 
-4.60926 -0.758545 -85.6983 115 136 109 0.332059 0.0503903 0.941912 
-9.44636 -4.48685 -84.7967 121 130 121 0.426048 0.308304 0.850548 
-8.38952 -5.03535 -90.8125 119 121 114 0.239653 0.0479307 0.969675 
-8.01923 -4.69943 -90.7497 69 72 69 0.192642 0.1874 0.963208 
-3.93725 -0.0246315 -90.5539 106 107 102 -0.104664 0.694323 0.712012 
-1.15222 -1.1347 -90.6005 110 111 106 0.602804 0.39141 0.695289 
-8.70217 -5.23097 -90.7288 134 134 125 0.1676 0.170159 0.971059 
-6.97351 -4.17463 -91.0188 184 181 174 0.0581862 0.420835 0.905269 
-1.29929 -2.71676 -90.8617 122 124 115 0.347836 0.13336 0.928022 
-10.9924 -3.13501 -90.0225 136 133 137 0.225824 0.165076 0.96008 
-8.13453 -5.11418 -90.6939 68 72 64 0.150025 0.115873 0.981869 
-3.18985 -0.448093 -86.2581 58 77 53 0.160574 -0.00112289 0.987023 
-8.24462 -1.74999 -90.7811 135 151 119 0.306601 0.312526 0.899068 
-6.00299 -1.70172 -90.6736 142 139 137 0.0588733 0.341465 0.938049 
-6.90268 -0.588573 -90.5975 120 116 111 -0.048941 0.0197847 0.998606 
-6.8629 -1.7826 -90.8454 148 145 135 -0.136785 0.701962 0.698956 
-5.2997 -4.43406 -90.7699 78 84 78 0.238894 0.00594264 0.971027 
-7.49409 -1.5313 -90.7704 110 117 101 0.370994 -0.233154 0.89889 
-4.4135 -0.929527 -90.3643 74 79 69 0.0924517 0.510618 0.854823 
-6.86578 -2.48118 -90.813 177 176 168 -0.161282 0.312915 0.935987 
-6.76636 -3.60592 -90.9598 104 107 99 0.0467762 0.294563 0.954486 
-1.80139 -0.412514 -90.6901 100 102 100 0.548139 0.265431 0.793152 
-3.09568 -4.07376 -90.8189 123 118 124 0.1557 -0.0193204 0.987615 
-9.6905 -3.22586 -84.877 97 118 100 0.215333 0.296962 0.930293 
-5.21598 -0.677917 -90.4731 148 147 143 0.215514 0.242968 0.945791 
-10.902 -4.30834 -89.9498 79 76 80 0.373054 0.277169 0.885442 
-1.46629 -2.63122 -90.9036 133 133 127 0.322091 0.192692 0.926891 
-6.26838 -1.24295 -90.4921 108 105 97 -0.0874609 0.546272 0.833029 
-10.2721 -2.66598 -85.0149 103 122 105 0.07625 0.608561 0.789835 
-3.54216 -0.653954 -90.4565 56 64 53 0.0895223 0.149204 0.984746 
-5.36882 -2.46172 -89.9759 109 113 106 -0.389861 0.269441 0.880574 
-2.12734 -3.75345 -90.8494 136 133 134 0.158272 -0.019357 0.987206 
-4.35686 -3.35957 -90.6788 157 152 161 0.326696 0.168214 0.93004 
-9.45809 -4.97 -90.6031 107 111 103 0.27456 -0.00362854 0.961563 
-2.70432 -3.37457 -90.5717 91 84 92 0.271288 0.0462565 0.961386 
-8.07334 -2.84351 -90.9006 153 150 138 0.145376 0.441887 0.885213 
-8.18046 -4.42694 -90.7717 82 84 82 0.096955 0.270181 0.957915 
-1.26684 -1.34057 -90.3989 107 105 106 0.588374 0.375314 0.71621 
-5.62473 -0.793919 -85.7826 96 117 91 0.230421 -0.316292 0.920253 
-11.2056 -1.80511 -90.1035 88 88 91 0.290036 0.147041 0.945652 
-4.0334 -0.232464 -90.6859 71 72 65 0.409582 0.544465 0.731984 
-2.52451 -3.19106 -90.7816 108 105 109 0.142971 -0.0191379 0.989542 
-3.8196 0.137383 -86.9932 127 158 120 0.111459 0.441603 0.89026 
-6.55201 -1.22696 -90.4057 159 155 145 0.0152912 0.210549 0.977464 
-7.49031 -4.73101 -90.7461 84 89 82 0.481131 0.166262 0.860738 
-11.0824 -2.22448 -90.1241 116 110 118 0.271133 0.231798 0.934215 
-11.1453 -5.41148 -89.8059 84 82 89 0.413413 0.0303786 0.910037 
-11.5157 -4.24178 -89.853 146 140 148 0.330568 0.0424465 0.942827 
-10.6783 -4.98688 -90.101 76 75 85 0.405092 0.158888 0.900364 
-2.42069 -2.90094 -90.744 157 156 155 0.216176 -0.161149 0.962964 
-6.84646 -3.55666 -90.9283 130 131 124 0.02887 0.302507 0.95271 
-3.45662 -0.232185 -86.7147 70 93 63 0.318837 0.055506 0.946183 
-4.02066 -1.2384 -90.5475 87 96 85 0.565386 0.524881 0.63627 
-9.2255 -5.20285 -90.5732 112 112 106 0.260874 -0.00601092 0.965354 
-2.69068 -2.6491 -90.7241 121 122 124 0.228907 -0.165396 0.959294 
-9.39258 -4.13025 -90.2833 131 138 118 0.505882 0.116742 0.854666 
-9.89034 -2.52664 -85.0608 100 128 101 0.196825 0.366354 0.90942 
-8.69808 -4.31327 -90.6779 96 101 85 0.182618 0.0244266 0.98288 
-7.20194 -2.40467 -90.995 158 156 146 -0.0684365 0.387807 0.919196 
-4.97952 -1.58997 -90.5022 63 68 65 0.184576 0.367722 0.911434 
-10.251 -4.54416 -89.9872 84 83 87 0.317295 0.293682 0.901707 
-6.95096 -3.3689 -90.976 156 155 146 0.154037 0.203226 0.96694 
-1.71257 -2.21528 -90.7936 152 152 151 0.448209 -0.334977 0.828794 
-6.76847 -4.863 -90.9513 144 146 133 0.0432306 0.548052 0.835326 
-5.2941 -2.53435 -89.9588 81 91 80 -0.605277 0.35403 0.712954 
-11.3099 -2.24722 -89.9593 87 90 91 0.342979 0.0670188 0.936949 
-11.451 -2.08665 -89.5993 101 92 106 0.382555 0.0489777 0.922634 
-9.98706 -3.67305 -89.694 149 149 144 -0.0441503 0.702132 0.710677 
-4.86369 -3.16551 -90.849 95 98 99 0.389799 0.252399 0.885636 
-4.49156 -1.48862 -85.9582 162 183 150 0.364623 0.0734589 0.928253 
-9.15326 -4.07152 -90.5437 88 100 78 0.212601 0.160429 0.963879 
-8.77389 -4.16055 -85.0751 112 138 112 -0.0291136 0.572568 0.81934 
-7.79167 -1.27278 -90.6998 126 151 109 0.308819 -0.0551005 0.949523 
-1.28961 -1.48569 -90.7228 110 109 111 0.472778 0.12502 0.872268 
-3.24757 -0.326786 -86.3964 66 85 59 0.154397 0.434332 0.887422 
-9.05081 -4.55284 -84.9295 131 157 131 0.402098 0.277675 0.872476 
-6.21312 -3.71982 -90.79 144 151 136 -0.122115 0.195133 0.973145 
-1.50176 -2.60072 -90.8527 117 118 112 0.329006 0.190626 0.924888 
-5.72637 -0.768314 -90.6208 118 120 114 0.0451189 0.474432 0.879135 
-3.79994 -1.47709 -90.5206 79 85 81 0.0686145 0.0137229 0.997549 
-2.07333 0.163666 -90.7384 49 51 49 0.365189 0.54048 0.75797 
-2.43305 0.502144 -90.7111 83 80 81 0.265323 0.665691 0.697466 
-2.67885 0.227058 -90.4523 121 120 115 -0.162564 0.830715 0.532433 
-4.74141 -0.451084 -89.9152 86 101 81 0.32968 0.459028 0.824988 
-4.66868 0.0708275 -90.3912 137 136 131 0.4754 0.345023 0.809293 
-1.89027 0.659657 -90.6068 124 121 121 0.485485 0.317859 0.814414 
-2.13763 0.369202 -90.7175 87 86 85 0.459594 0.58661 0.66683 
-10.6533 -5.16247 -90.0315 100 104 103 0.198135 0.139333 0.970221 
-12.0152 -1.0224 -89.7685 93 86 97 0.4048 0.0919377 0.909772 
-2.49142 0.238945 -90.2396 88 89 82 0.0611465 0.809125 0.584447 
-2.50196 0.374405 -90.5002 88 87 84 0.251682 0.710725 0.656906 
-1.27287 -2.28825 -90.6856 119 117 119 0.480199 -0.43431 0.762091 
-4.58929 -3.64363 -90.6747 83 78 85 0.355495 0.258139 0.898325 
-2.88944 -1.94201 -90.5732 94 95 96 0.259411 0.0356537 0.965109 
-2.548 0.453926 -90.7269 116 115 115 0.0142651 0.919454 0.39294 
-4.27858 -3.5806 -90.645 98 91 100 0.400638 0.287911 0.869826 
-1.97558 -0.303238 -90.8398 113 115 111 0.472163 0.545574 0.692395 
-1.88964 0.660988 -90.604 103 102 104 0.243851 0.0303297 0.969338 
-3.59315 -0.867325 -90.6189 51 60 48 0.295872 -0.409315 0.863088 
-8.0739 -4.30218 -90.7713 145 147 143 0.178585 -0.00113748 0.983924 
-9.02955 -5.33138 -90.6774 125 124 116 0.0797631 0.155955 0.984538 
-4.0142 -2.1667 -90.5934 150 153 152 0.180034 0.112987 0.97715 
-3.72076 -3.88674 -90.713 105 105 108 0.355695 0.0140238 0.934497 
-3.02564 -2.1552 -90.3382 73 74 79 0.380952 0.20134 0.902407 
-10.6862 -3.4655 -90.1031 120 128 117 0.309787 0.0446195 0.949758 
-9.18056 -4.70769 -90.6854 96 103 89 0.3107 -0.0991596 0.945322 
-10.9877 -2.79985 -90.1066 137 133 139 0.259773 0.1021 0.960257 
-1.33357 -1.62424 -90.4174 104 103 105 0.366743 0.656191 0.65948 
-5.22633 -4.23608 -90.6898 86 87 84 0.137205 -0.0351518 0.989919 
-6.46865 -4.75196 -91.0525 151 149 143 0.407162 0.285166 0.867698 
-4.50701 -1.95742 -90.4793 75 80 75 0.0377933 0.0723472 0.996663 
-10.1598 -1.79102 -90.5116 119 121 109 0.323697 -0.0112481 0.946094 
-10.9809 -5.03279 -90.0965 83 86 89 0.377759 0.0246647 0.925575 
-10.2237 -3.3293 -89.6392 134 141 128 0.116253 0.418791 0.900611 
-9.24189 -2.64341 -90.5462 72 77 58 0.260462 0.3706 0.891524 
-8.74845 -4.23383 -85.2958 116 140 115 0.262949 0.0358005 0.964145 
-8.35819 -4.05174 -90.7721 57 61 55 0.00629604 0.346282 0.938109 
-6.91639 -3.50945 -91.0027 153 152 143 0.058773 0.258851 0.964127 
-2.01105 -0.76786 -90.643 78 80 79 0.520893 0.438212 0.732558 
-4.93301 -0.564415 -85.6583 71 95 65 0.227627 -0.41211 0.882242 
-11.1873 -3.33125 -89.7444 101 107 103 0.0584612 0.250015 0.966475 
-4.375 -2.30234 -90.4048 74 78 73 0.19636 0.150158 0.968966 
-8.12669 -2.85582 -90.9242 123 124 111 0.22161 0.197435 0.954939 
-5.11317 -2.82671 -90.472 95 105 91 0.0390885 0.112798 0.992849 
-2.74941 0.20224 -90.4648 104 105 99 0.00129561 0.908224 0.418483 
-6.24898 -1.62729 -90.4289 135 135 127 0.0882894 0.46387 0.881493 
-3.09067 -1.37864 -90.2101 94 106 85 0.299343 0.228409 0.926403 
-3.43656 -0.886477 -86.1557 80 104 73 0.430104 -0.354481 0.830273 
-1.92863 -0.929287 -90.605 107 108 109 0.520893 0.438212 0.732558 
-10.3259 -1.8672 -90.3782 103 107 96 0.323035 0.0830661 0.942735 
-2.55481 0.31456 -90.2107 119 122 114 -0.0351922 0.926728 0.37408 
-2.70272 -0.708569 -90.3135 75 77 74 0.478766 0.291626 0.828093 
-9.64464 -3.10774 -90.242 79 87 65 -0.163219 0.891206 0.423215 
-4.90577 -1.71651 -90.3433 88 98 86 0.183229 0.356516 0.916146 
-3.58503 -1.89545 -90.5064 85 82 85 0.285568 0.0440304 0.957346 
-3.81689 -1.44382 -86.0936 133 158 124 0.0930923 0.204803 0.974366 
-6.07458 -4.68351 -90.9273 128 133 123 0.247325 -0.412208 0.876878 
-5.8829 -2.09574 -90.4218 68 75 69 0.258439 -0.14181 0.955562 
-5.42768 -1.59558 -90.432 101 113 95 0.183229 0.356516 0.916146 
-4.64598 -4.09377 -90.2222 138 146 133 0.283294 0.0235047 0.958745 
-8.79329 -4.34647 -90.7671 82 85 70 0.384036 0.0741122 0.920339 
-5.18046 -1.57523 -90.393 166 177 159 0.195779 0.350116 0.916018 
-2.56206 -1.47651 -90.4495 65 65 67 0.503608 0.220614 0.835289 
-11.2088 -1.63479 -90.0755 97 94 100 0.330537 0.0240621 0.943486 
-8.88634 -4.54057 -90.5611 120 127 111 0.2547 -0.0156924 0.966893 
-5.99008 -2.14127 -90.4353 130 142 125 0.206644 0.177688 0.962146 
-11.1523 -5.34722 -89.7695 112 110 113 0.387154 0.0273745 0.921609 
-11.6408 -3.2324 -89.6974 101 99 103 0.378327 0.0794353 0.922257 
-4.9803 -3.41693 -90.7619 83 81 88 -0.0528037 0.431907 0.900371 
-8.95948 -3.35823 -85.0767 94 107 92 0.281215 0.402822 0.871007 
-1.4117 -0.682014 -90.7767 131 132 128 0.544248 0.451044 0.707356 
-10.2395 -1.87615 -84.8879 120 142 122 0.546272 0.0874609 0.833029 
-10.1448 -1.958 -84.9826 62 84 64 0.547704 0.10896 0.829547 
-1.98107 -1.43315 -90.6711 121 120 125 0.523654 0.146033 0.839322 
-1.88434 -1.17458 -90.7372 66 66 67 0.533723 0.149324 0.832371 
-2.78634 0.0644722 -90.508 124 126 115 0.375582 0.350853 0.857811 
-7.04394 -0.999729 -90.5531 186 184 171 0.00688282 -0.00098326 0.999976 
-7.13707 -0.566971 -90.5357 137 135 127 -0.155351 -0.0192772 0.987671 
-5.9548 -2.61804 -90.5219 57 62 62 -0.0870642 0.0451852 0.995177 
-3.4067 -1.27421 -90.4683 88 99 79 0.114285 -0.0277391 0.993061 
-10.9934 -3.88595 -89.9389 70 68 74 0.298271 0.0495002 0.953197 
-7.13665 -2.56201 -90.9654 171 169 158 -0.102059 0.437594 0.893362 
-4.51016 -3.27575 -90.7185 98 96 102 0.021969 -0.176909 0.983982 
-3.90832 -1.60983 -90.4808 45 43 46 0.156191 -0.00561838 0.987711 
-9.39832 -4.33453 -90.3369 95 105 87 0.315483 0.00371157 0.948924 
-3.75115 -2.28674 -90.4784 93 94 98 0.0508748 -0.0595343 0.996929 
-1.82859 -0.833458 -90.6037 74 75 74 0.574202 0.374622 0.727977 
-9.08536 -3.98512 -85.1265 137 169 138 0.385188 0.163456 0.908247 
-11.2773 -2.92163 -89.9359 109 104 110 0.249179 0.280504 0.926945 
-7.9171 -1.25363 -90.6512 108 136 93 0.312794 -0.082452 0.946235 
-6.13518 -1.76002 -90.4267 74 80 75 0.0590194 -0.193921 0.97924 
-1.79632 -1.71106 -90.5061 94 94 97 0.463957 0.162458 0.870834 
-9.64327 -5.10784 -90.4501 54 55 56 0.365548 -0.0351238 0.93013 
-5.35204 -0.123096 -90.2193 140 144 132 0.101947 0.00321937 0.994785 
-9.69382 -2.2067 -90.5845 139 140 125 0.279352 0.125775 0.951916 
-4.3012 -0.611553 -90.2596 44 47 38 0.463037 0.509507 0.725259 
-3.02329 -3.97339 -90.7963 103 100 106 0.260877 -0.0036066 0.965365 
-5.37467 -1.61718 -90.5817 125 136 120 0.0544989 0.526823 0.848226 
-7.26391 -2.31196 -90.8502 106 107 97 0.164528 -0.0264625 0.986017 
-0.764501 -3.44516 -90.9184 145 148 135 0.280581 0.315837 0.906378 
-1.56431 -1.83998 -90.6268 81 80 83 0.472778 0.12502 0.872268 
-7.4129 -3.5455 -90.9932 151 156 141 0.0760248 0.0919105 0.992861 
-1.18064 -1.41608 -90.3795 97 98 101 0.254671 -0.0664905 0.964739 
-3.18342 0.110374 -90.4348 124 124 119 -0.0943819 0.939831 0.328343 
-9.12627 -2.10598 -84.7122 120 145 120 0.414848 -0.254943 0.873444 
-3.97434 -1.4382 -85.9974 141 166 133 0.461922 0.112283 0.879784 
-3.89098 -2.51255 -90.7283 45 46 56 -0.320185 -0.270476 0.907923 
-6.40498 -4.83579 -91.0027 137 133 130 0.364239 0.364239 0.857123 
-8.80109 -3.6169 -90.7994 59 66 52 0.0178432 0.224824 0.974236 
-8.93761 -4.23642 -85.1877 109 137 110 0.437419 0.0501069 0.897861 
-8.78297 -4.78024 -90.6281 120 124 109 0.171197 -0.00340126 0.985231 
-10.1075 -3.74099 -89.6427 132 131 129 -0.142977 0.702846 0.696825 
-3.51472 -0.855906 -90.5751 33 35 31 0.148916 0.0845841 0.985226 
-4.2022 -1.05383 -85.9936 114 135 105 0.244495 0.0059633 0.969632 
-7.74491 -0.360054 -90.4925 142 164 125 0.314412 0.220515 0.923319 
-7.63865 -0.594539 -90.5295 122 147 105 0.323601 0.180712 0.928776 
-1.39193 -0.706444 -90.5816 89 91 87 0.589778 0.40475 0.698813 
-1.23137 -0.967686 -90.626 110 111 105 0.599311 0.391286 0.698371 
-7.70356 -5.16125 -90.8715 68 76 68 0.0922502 0.281948 0.954984 
-3.20959 -1.00807 -90.5319 92 103 84 0.212114 0.0698872 0.974743 
-9.846 -1.79216 -85.1861 63 77 64 0.581344 0.15094 0.799535 
-4.17845 -3.30781 -90.6896 76 77 84 -0.388606 -0.163698 0.906746 
-11.0713 -2.78253 -90.0087 88 84 90 0.252047 0.277679 0.92702 
-5.64875 -0.11272 -90.3432 127 127 124 0.113553 -0.0209466 0.993311 
-7.96769 -2.539 -90.8069 156 154 144 0.410046 -0.155732 0.898671 
-3.20148 -3.08364 -90.5486 108 106 111 0.0536322 0.187117 0.980873 
-5.35976 -0.00489998 -85.4068 108 134 101 0.198073 -0.340572 0.919118 
-8.13128 -4.52747 -90.8369 64 69 64 0.28256 -0.0012127 0.959249 
-3.38717 -1.19869 -86.2408 138 161 131 0.266631 0.0644464 0.961642 
-2.72055 -0.935276 -90.4314 55 59 56 0.0752498 0.0797423 0.993971 
-4.58255 -2.82826 -90.5146 50 54 50 0.114005 0.0507942 0.992181 
-7.06203 -2.01835 -90.9207 135 137 120 0.0610867 0.25058 0.966167 
-3.70728 -0.203117 -90.5911 109 111 105 0.47949 0.367235 0.797012 
-3.27752 -2.38622 -90.8244 59 61 71 -0.0330664 -0.147088 0.988571 
-6.00063 -3.64536 -90.6987 92 95 92 0.344618 0.0589651 0.936889 
-2.66477 -2.80084 -90.5767 160 158 159 0.4243 0.134811 0.89543 
-3.07264 -2.30974 -90.5239 54 58 58 0.218783 -0.0153739 0.975653 
-3.12772 -0.999405 -90.6196 59 61 53 0.690778 0.203353 0.693883 
-4.30485 -1.37724 -90.5144 49 54 51 0.128242 -0.0442605 0.990755 
-4.19009 -0.97287 -90.0358 91 104 90 -0.0256966 0.488236 0.872333 
-6.3613 -3.94779 -90.8951 133 141 124 -0.0678244 0.220738 0.972972 
-3.31297 0.207947 -90.1818 118 118 116 0.0626751 0.862131 0.502794 
-5.40985 -3.10509 -90.8751 103 104 101 -0.0418472 0.44412 0.89499 
-11.1251 -2.60389 -89.9554 99 91 102 0.218212 0.158106 0.963009 
-3.58443 -0.295975 -90.5571 38 37 39 0.0747608 0.85058 0.520504 
-3.1623 -3.41338 -90.4483 105 100 108 0.14642 -0.0100594 0.989171 
-6.29727 -1.34153 -90.5471 42 47 44 0.256987 -0.524877 0.811457 
-4.89916 -0.0832214 -90.2207 114 117 104 0.0804381 0.330983 0.940202 
-8.14282 -4.22594 -90.7923 101 105 100 0.0941896 0.383584 0.91869 
-3.52995 -1.53502 -86.2191 163 182 151 0.032126 0.107456 0.993691 
-3.34352 -1.27883 -90.5759 92 102 86 0.0992787 -0.0479661 0.993903 
-3.49943 0.0688858 -90.4367 103 103 102 -0.214454 0.975344 0.0520991 
-4.66636 -0.428234 -90.3434 139 148 130 0.505631 0.255135 0.824163 
-11.1387 -5.69059 -90.0907 82 78 87 0.308156 0.172733 0.935523 
-8.32367 -0.619949 -90.5218 110 153 91 0.160982 0.394619 0.904633 
-11.2325 -1.03121 -90.0421 141 137 143 0.377318 0.062664 0.923961 
-2.76995 -3.28086 -90.6258 114 109 112 0.189222 -0.0638774 0.979855 
-4.64489 -3.31207 -90.0537 99 116 96 -0.0064321 0.392358 0.91979 
-8.45253 -1.6227 -90.6723 135 159 115 0.335988 -0.0505928 0.940507 
-4.38359 -0.932707 -85.9031 158 181 149 0.268309 0.102398 0.957875 
-3.6933 -0.308506 -90.6597 86 85 85 0.0747608 0.85058 0.520504 
-3.86924 -0.504978 -90.4484 141 141 142 0.0717145 0.853543 0.516063 
-3.63713 -0.654137 -90.4832 81 88 76 0.458077 0.55469 0.694611 
-1.33754 -2.8633 -90.9175 145 145 135 0.233165 0.340334 0.910937 
-5.30948 -1.63198 -85.7254 119 140 114 0.294685 -0.466194 0.83416 
-12.2538 -1.04984 -89.7586 73 68 78 0.207611 0.254358 0.944563 
-7.90333 -4.12126 -91.0117 84 91 85 -0.045547 0.503777 0.862632 
-11.4351 -4.03533 -89.9853 111 107 114 0.292827 0.0286596 0.955736 
-8.40544 -2.31041 -90.76 137 142 124 0.180707 0.500304 0.846783 
-10.792 -3.50744 -90.0531 128 131 128 0.345379 0.0508294 0.937086 
-3.75989 -0.539421 -90.6568 107 106 107 0.0746906 0.852601 0.517197 
-4.56936 -2.26277 -90.4881 112 126 106 0.288571 0.0441047 0.956442 
-3.8532 -0.307926 -90.7108 146 146 144 0.0688499 0.855706 0.512862 
-3.96463 -0.346195 -90.6149 84 83 79 0.213098 0.738844 0.639295 
-9.08705 -5.3804 -90.4323 173 167 159 0.4048 0.0919377 0.909772 
-5.41509 -1.76631 -90.2902 100 115 93 0.0179973 0.604985 0.796033 
-3.92406 -0.373428 -86.3922 105 128 98 -0.192751 0.811984 0.550935 
-9.53514 -2.91732 -89.8711 91 99 80 -0.180438 0.796051 0.577706 
-5.7043 -4.7001 -90.9789 121 135 115 0.195091 -0.0342888 0.980186 
-3.81447 -0.151237 -86.7359 101 129 92 0.148834 0.272193 0.950663 
-1.72801 -2.1427 -90.5635 66 67 71 0.123208 -0.505878 0.85376 
-2.76202 -0.583118 -90.413 58 62 57 0.379624 0.52626 0.760878 
-6.46478 -4.41136 -90.8164 163 166 154 0.205948 0.00581775 0.978546 
-10.0816 -2.16291 -85.3045 81 105 82 0.581328 0.160729 0.797636 
-7.45595 -5.00729 -90.8751 83 89 80 0.197316 0.224162 0.954368 
-6.21693 -0.993607 -90.3908 99 100 92 0.350117 0.0700234 0.934085 
-2.92206 -2.40335 -90.549 86 84 89 0.302735 0.0523718 0.951635 
-9.18935 -1.27405 -90.7322 186 183 170 0.270297 0.0207921 0.962552 
-3.0556 -3.57592 -90.5495 131 123 131 0.282639 -0.0209819 0.958997 
-7.76863 -3.55299 -90.8519 84 88 86 0.521863 -0.528575 0.669528 
-5.57001 -1.28154 -90.5864 72 87 73 0.134836 -0.284356 0.94919 
-11.0542 -5.1315 -89.8948 106 102 110 0.313133 0.249641 0.916312 
-2.80822 -0.603491 -90.4356 59 65 60 0.0852586 0.15971 0.983475 
-10.4581 -1.821 -85.3702 97 118 101 -0.0410818 0.667225 0.743722 
-9.12389 -4.96061 -90.6327 96 99 88 0.26208 -0.0108697 0.964985 
-10.1456 -1.66812 -90.5386 110 111 99 0.328237 -0.0450521 0.94352 
-10.1029 -2.15471 -85.2656 119 143 120 0.376911 0.376911 0.846095 
-2.84477 -0.919178 -86.5636 90 109 82 0.256026 0.198523 0.946065 
-11.1073 -2.62865 -90.0673 119 114 122 0.465932 -0.0943124 0.87978 
-3.66763 -1.35041 -86.0871 129 154 119 0.0907565 0.210108 0.973457 
-4.85838 -2.86176 -90.7798 55 59 61 -0.0336016 -0.0812941 0.996124 
-8.84927 -3.88156 -90.6617 63 70 55 0.0771395 0.0380265 0.996295 
-9.892 -2.24318 -85.3161 84 109 86 0.122161 0.478585 0.869502 
-6.79674 -2.18593 -90.789 86 86 82 0.19422 -0.0294273 0.980516 
-10.7918 -0.815144 -90.1532 155 150 148 0.374986 0.0352774 0.926359 
-7.96377 -0.717999 -90.6105 103 136 88 0.272936 0.172452 0.946449 
-9.72309 -2.277 -86.0862 77 92 77 0.195806 0.652173 0.732346 
-4.92749 -3.74008 -90.5917 118 115 120 0.351014 0.142903 0.925401 
-6.24084 -4.06858 -90.6637 129 132 124 -0.104606 0.178445 0.978374 
-7.54441 -3.51687 -90.8979 115 121 110 0.181659 -0.0534291 0.981909 
-4.31023 -0.371044 -90.4625 137 142 129 0.402863 0.554142 0.728442 
-8.5422 -4.52331 -90.6797 83 87 75 0.219778 0.0201959 0.975341 
-7.53828 -1.2363 -90.6825 146 153 130 0.2522 0.141285 0.957305 
-9.287 -4.29634 -90.5397 64 71 57 0.265966 -0.0036104 0.963976 
-10.4042 -1.82236 -90.358 107 110 99 0.238101 0.295131 0.925314 
-9.73441 -2.65684 -90.3769 105 108 90 0.0867975 0.525054 0.846631 
-7.59194 -4.91862 -90.8512 61 67 61 0.276389 0.0309854 0.960546 
-4.46986 -2.26043 -90.5233 108 109 110 0.0495429 -0.0326773 0.998237 
-4.18438 -1.72854 -86.0409 99 118 89 0.0722028 -0.0334073 0.99683 
-10.2978 -2.79425 -84.933 108 124 113 0.148899 0.633196 0.759534 
-5.91751 -4.25802 -90.5245 126 124 121 0.395435 0.246214 0.884879 
-6.54113 -1.60455 -90.5233 129 127 117 0.0344945 0.536735 0.843046 
-10.2543 -2.35681 -90.4854 107 109 99 0.306199 0.0340221 0.951359 
-9.53191 -3.6382 -89.9735 93 101 88 0.269404 0.0409692 0.962156 
-9.83229 -2.72824 -85.1215 119 145 122 0.122327 0.591004 0.797339 
-2.06315 -0.980438 -90.3269 98 99 101 0.466666 0.318967 0.824914 
-7.081 -0.748814 -90.5859 156 153 145 -0.0907269 0.00533688 0.995862 
-10.0794 -2.86258 -84.9037 96 116 100 0.180066 0.567435 0.803488 
-9.05169 -1.5733 -90.6243 156 155 138 0.16191 0.0287074 0.986388 
-5.71116 -2.64417 -90.2764 75 83 71 -0.457288 0.174975 0.871935 
-10.1098 -4.00004 -90.1324 113 122 112 0.399786 0.0832319 0.912822 
-2.65757 -3.96842 -90.8375 115 112 117 0.0658412 -0.0836964 0.994314 
-7.57112 -2.68073 -90.9178 163 161 153 -0.0273635 0.381787 0.923845 
-4.35752 -3.23322 -90.7899 52 53 59 -0.0126942 -0.188104 0.982067 
-2.68425 -0.072567 -90.4455 97 101 92 0.349976 0.481018 0.803827 
-6.21498 -1.57928 -90.5586 121 124 110 0.125283 0.231192 0.964808 
-6.8698 -4.84447 -90.9107 104 108 97 0.2857 -0.138155 0.948308 
-11.4203 -2.69539 -89.7324 90 93 94 0.262949 0.0358005 0.964145 
-11.1386 -3.26662 -89.9417 76 77 79 0.346145 0.0671232 0.935777 
-4.49915 -0.665962 -90.2351 107 116 98 0.326476 0.700056 0.635086 
-9.94082 -3.13318 -84.7676 146 159 148 0.15828 0.598449 0.78537 
-11.4056 -1.85718 -89.9599 134 127 136 0.287672 0.299354 0.909743 
-7.37909 -1.28999 -90.7074 141 146 127 -0.0888407 0.394999 0.914376 
-2.76826 -1.23975 -90.7001 45 50 47 0.619783 -0.043766 0.783552 
-5.04372 -3.3222 -90.8137 135 132 139 -0.0555736 0.4351 0.898665 
-6.34656 -4.64037 -90.9106 106 106 104 0.221535 -0.0177702 0.97499 
-4.97208 -1.60098 -85.6616 120 139 112 0.266392 -0.565886 0.780261 
-8.37604 -4.61975 -90.6498 68 71 61 0.382443 0.0824346 0.920295 
-11.082 -5.69096 -89.8524 77 73 83 0.353451 0.016588 0.935306 
-9.80198 -3.09146 -84.8763 111 131 115 0.0816285 0.565671 0.820581 
-6.48246 -1.27959 -90.6095 122 120 111 -0.0178391 0.561244 0.827458 
-10.028 -2.93958 -84.9138 86 109 88 0.07992 0.693124 0.716374 
-5.30168 -1.64041 -85.6897 119 139 113 0.233711 -0.543261 0.806379 
-3.28889 -3.87452 -90.5921 130 122 131 -0.164168 -0.1222 0.978834 
-9.07347 -2.06251 -90.6259 152 156 137 0.133855 0.467772 0.873654 
-8.41051 -4.69426 -90.8141 69 72 64 0.0144357 0.42126 0.906825 
-9.46507 -4.11105 -85.0343 66 90 67 0.255868 0.390535 0.884315 
-9.68342 -5.47855 -90.3139 106 100 104 0.448944 -0.067273 0.891024 
-10.6055 -4.35944 -90.1484 106 110 101 0.286947 0.337498 0.896525 
-9.70596 -4.60138 -90.4531 100 104 92 0.343038 0.0644018 0.937111 
-8.15077 -2.53125 -90.7296 167 169 151 0.389262 0.440522 0.808959 
-10.5602 -3.03999 -90.3134 116 118 114 0.274467 0.0258466 0.961249 
-9.64087 -3.06145 -90.3167 74 84 64 0.197229 0.336283 0.920877 
-7.60999 -5.07628 -90.8311 70 77 70 0.103126 0.19507 0.975352 
-9.9495 -5.08138 -90.1945 126 119 126 0.458367 -0.084986 0.88469 
-3.6681 0.0109825 -86.9097 119 148 112 0.261805 0.305198 0.915594 
-9.85077 -3.11338 -84.9489 109 131 113 0.0670322 0.58047 0.811518 
-5.02438 -3.6342 -90.5382 104 98 105 0.10508 0.43293 0.895282 
-4.25511 -1.4357 -85.8519 118 139 111 0.22791 0.0325585 0.973138 
-9.02435 -1.17956 -90.694 163 165 146 0.113505 0.0971227 0.988779 
-9.22782 -3.52731 -90.1592 56 68 47 0.525576 0.0543699 0.849007 
-8.86694 -5.28181 -90.7091 123 123 114 0.0937629 0.174131 0.980248 
-8.18903 -1.93873 -90.7055 107 114 90 0.466423 0.50626 0.725362 
-5.36889 -4.03006 -90.6931 108 110 108 0.190644 -0.0269007 0.981291 
-8.13414 -1.43573 -90.6632 106 140 88 0.326269 -0.177838 0.928398 
-8.13034 -3.13554 -90.787 116 116 106 0.0871796 0.541657 0.836067 
-10.4617 -2.47615 -90.253 110 112 108 0.138527 0.382 0.913721 
-8.80105 -1.00118 -90.6513 150 157 134 0.109765 0.0554482 0.99241 
-2.35676 -3.85794 -90.8392 90 88 90 0.145172 -0.0354357 0.988772 
-7.94452 -3.92537 -90.9014 75 83 75 0.133147 0.344535 0.929283 
-10.2569 -1.94706 -84.8716 139 163 139 0.576847 0.147566 0.803412 
-5.83581 -1.54234 -90.4322 66 77 69 0.252312 -0.109982 0.961375 
-11.8249 -2.40218 -89.7607 105 101 109 0.294665 0.013562 0.955504 
-10.711 -4.00357 -90.0891 102 105 100 0.494644 0.113266 0.861683 
-3.20134 -3.42751 -90.3522 121 113 123 0.0501559 0.043753 0.997783 
-8.74902 -4.33879 -85.0719 135 159 136 0.242288 0.302501 0.92184 
-10.6312 -2.6503 -90.1191 95 94 95 0.181792 0.171478 0.96827 
-3.66204 0.138702 -90.3852 114 112 112 0.517863 0.142302 0.843545 
-10.4391 -1.65977 -90.3732 119 118 106 0.381671 0.0462231 0.923142 
-9.68009 -4.18468 -90.4674 72 77 73 0.204209 -0.0271492 0.978551 
-7.23528 -0.722023 -90.6528 158 160 146 -0.234614 -0.148109 0.960739 
-2.71696 -0.973053 -86.5849 117 132 113 0.201945 -0.0271622 0.97902 
-9.274 -3.90334 -84.9867 118 146 121 0.345892 0.21098 0.914246 
-11.1312 -5.5984 -89.9323 113 112 112 0.203316 0.298664 0.93245 
-10.5348 -4.42608 -89.7648 98 108 98 0.316151 0.286741 0.904338 
-5.53864 -4.40074 -90.7256 99 104 98 0.302129 0.00616589 0.953247 
-9.85439 -4.20274 -89.9501 114 113 112 0.44113 -0.399423 0.803658 
-6.44659 -4.67034 -90.8853 146 149 135 0.278119 -0.298504 0.912987 
-9.43207 -4.22998 -90.4153 90 100 85 0.143287 -0.131041 0.980967 
-4.17938 -1.15409 -86.8928 96 113 91 -0.0249459 0.912495 0.408325 
-9.10936 -3.9757 -85.0242 124 152 127 0.381314 0.120634 0.916541 
-4.18849 -0.991867 -85.9392 92 114 83 0.37879 0.0571508 0.923716 
-1.10872 -3.33361 -90.8694 119 123 107 0.184827 0.334382 0.924136 
-10.1253 -2.45422 -90.5858 139 138 127 0.476068 0.549566 0.68654 
-11.5971 -3.02 -89.7492 114 113 119 0.328865 0.0610934 0.942399 
-8.4933 -2.21241 -90.8657 144 149 131 0.156139 0.465498 0.871167 
-4.37358 -1.3344 -85.9221 104 125 96 0.294229 0.0573173 0.954015 
-10.0025 -5.25315 -90.1531 86 83 88 0.413374 0.0953939 0.905551 
-9.48544 -3.96845 -90.5352 74 86 66 0.165377 -0.175633 0.970466 
-8.01326 -2.95569 -90.8194 197 193 183 0.115492 0.471947 0.874029 
-7.84969 -3.39494 -90.8114 85 87 79 0.233125 0.1541 0.960159 
-2.25536 -0.255047 -90.5932 104 106 103 0.575445 0.327214 0.749529 
-11.1552 -4.91079 -89.8354 103 101 106 0.300695 0.291895 0.907954 
-5.97254 -0.875763 -90.7007 132 130 130 0.210549 0.16347 0.963819 
-5.96335 -3.09505 -90.6919 97 104 92 0.353646 0.0295777 0.934912 
-9.12248 -4.14208 -90.5615 90 101 81 0.143232 -0.0401051 0.988876 
-3.06264 -1.32905 -90.5304 105 113 99 0.288496 -0.324003 0.900995 
-7.36773 -4.74934 -90.8112 96 101 92 -0.00121553 0.283219 0.959055 
-3.24718 -3.17096 -90.2817 125 119 127 0.0932527 0.0340098 0.995061 
-8.49558 -4.06885 -90.5825 93 99 87 0.0528188 -0.0549747 0.99709 
-9.40805 -2.30378 -86.0212 107 111 104 -0.0761681 0.794735 0.602159 
-8.4607 -5.30998 -90.7324 87 88 78 0.290546 0.0286805 0.956431 
-11.4548 -1.47305 -89.9615 97 93 100 0.257596 0.208005 0.943599 
-4.27252 -3.81863 -90.6728 129 128 133 0.334305 0.0138768 0.942363 
-8.98972 -4.07274 -85.1269 120 149 124 0.325909 0.22828 0.917427 
-9.32903 -1.73923 -90.6962 147 148 134 0.0677285 0.118238 0.990673 
-7.88391 -1.0631 -90.6859 84 115 70 -0.0177157 -0.213769 0.976724 
-9.02676 -3.92804 -85.2046 140 168 144 0.327581 0.216003 0.919801 
-3.6419 -3.62626 -90.7845 114 112 117 0.356573 0.101684 0.928717 
-6.96311 -4.95622 -90.9655 155 159 144 0.363837 -0.0960313 0.926499 
-8.3646 -4.29117 -90.8319 142 145 139 0.0936846 0.310083 0.946082 
-9.04412 -4.22874 -90.4913 72 82 60 0.240543 -0.013164 0.970549 
-5.41372 -1.22545 -85.8562 118 138 108 0.514913 0.595948 0.616207 
-5.50403 -0.290682 -85.3528 116 149 105 0.520596 0.0836925 0.849692 
-8.97854 -4.10044 -90.6874 72 84 64 0.235873 -0.0302401 0.971313 
-8.69166 -3.85671 -84.9518 87 111 87 0.526385 0.0960976 0.844798 
-9.64388 -4.34195 -90.106 91 94 87 0.451885 -0.237277 0.859942 
-9.00966 -3.39037 -90.6792 70 83 61 0.316117 0.026448 0.948351 
-5.32761 -1.41202 -85.84 104 127 93 0.661953 0.369577 0.652098 
-10.1157 -2.70628 -84.946 96 120 97 0.189394 0.35458 0.915643 
-9.08802 -2.29809 -90.6494 134 139 120 0.15741 -0.0333203 0.986971 
-6.52992 -3.76659 -90.8403 126 131 118 0.0700224 0.0744682 0.994762 
-1.5801 -3.20408 -90.8238 128 129 116 0.17597 0.379122 0.908461 
-8.98581 -4.45731 -84.976 126 151 128 0.078665 0.559237 0.825267 
-5.2192 -2.06684 -90.2521 126 129 125 -0.285034 0.439107 0.852021 
-5.48706 0.0319901 -90.1836 137 139 131 0.0995844 0.267714 0.958338 
-2.07834 -2.99073 -90.8018 152 150 146 0.323436 0.18342 0.928303 
-5.0117 -2.10943 -90.3732 93 103 91 -0.0318113 0.095434 0.994927 
-8.32309 -2.70157 -90.7393 155 155 142 0.214649 0.384032 0.898023 
-3.03877 -0.942055 -90.4995 77 83 73 -0.0685072 0.496328 0.865428 
-2.9107 0.337337 -90.7345 118 114 116 0.0626751 0.862131 0.502794 
-2.05752 -0.916752 -90.3549 125 125 126 0.169627 0.69226 0.701429 
-9.42807 -1.40028 -90.6954 164 164 152 0.0397029 0.215358 0.975728 
-3.24081 -0.476566 -86.2686 76 96 70 0.172261 0.415454 0.893154 
-5.63778 -3.92839 -90.6295 145 140 144 0.293444 0.311139 0.903926 
-5.63026 -1.85136 -90.4542 141 151 134 0.206972 0.183242 0.961033 
-3.52811 -0.380905 -90.5004 83 89 80 0.37449 0.557646 0.740803 
-5.45794 -1.01767 -90.5943 114 120 105 0.160558 0.0527381 0.985616 
-8.08302 -4.6991 -90.8186 84 88 85 0.28256 -0.0012127 0.959249 
-8.36663 -2.52857 -90.7089 130 131 119 0.195586 0.424995 0.883813 
-11.2819 -2.77431 -89.7504 85 90 89 0.203509 0.225072 0.952852 
-8.53747 -2.33182 -90.6672 132 136 121 0.11571 0.0675929 0.990981 
-7.4916 -3.94361 -90.8193 77 80 74 -0.130055 0.701101 0.701101 
-4.06605 -3.93511 -90.6824 85 84 89 0.338999 0.0319811 0.940243 
-8.68391 -1.61477 -90.7411 156 169 134 0.239992 0.0107459 0.970715 
-7.15519 -2.18097 -90.8752 85 88 84 0.0970584 -0.0502026 0.994012 
-8.10471 -1.63614 -90.735 145 169 129 0.356948 -0.0402378 0.933257 
-3.44853 -0.322819 -86.5534 80 104 74 0.272381 0.0385562 0.961417 
-10.266 -3.19147 -90.0891 130 139 123 0.282211 0.220434 0.933684 
-9.24913 -4.99861 -90.6805 98 101 92 0.237733 -0.013141 0.971242 
-6.93903 -3.23586 -90.925 133 133 125 -0.160224 0.431593 0.887725 
-5.46765 -0.640583 -85.608 130 156 120 -0.0990822 -0.103745 0.989656 
-8.16567 -4.90943 -90.8341 65 67 62 0.270181 0.096955 0.957915 
-6.68466 -2.9646 -90.9202 140 142 131 -0.00127278 0.372926 0.92786 
-3.91828 -1.93122 -86.0131 95 107 90 0.479927 0.116042 0.8696 
-2.6515 -3.40412 -90.7946 62 58 63 0.159311 -0.0286531 0.986813 
-7.47738 -3.54188 -90.7895 109 114 103 -0.205183 0.82833 0.521316 
-5.03889 -3.33326 -90.0582 108 127 105 -0.169917 -0.193264 0.966321 
-7.00649 -4.4408 -90.8578 138 140 126 -0.229548 0.760474 0.607443 
-6.85114 -4.36016 -90.9091 163 165 152 -0.233364 0.75021 0.618649 
-6.95297 -4.51665 -90.7421 168 172 156 -0.229548 0.760474 0.607443 
-11.601 -3.39599 -89.6831 93 93 95 0.444306 0.102316 0.890013 
-1.00196 -2.62486 -90.9086 86 84 83 0.240131 0.339095 0.909589 
-5.24311 -3.63644 -90.7021 112 113 111 0.161284 -0.00789501 0.986876 
-9.95644 -1.55152 -90.5661 183 181 168 0.395368 0.0492546 0.917201 
-10.6177 -3.42525 -90.1463 137 145 134 0.459094 0.0968731 0.88309 
-5.05477 -3.84438 -91.0231 90 91 91 0.32172 0.12896 0.938011 
-10.3112 -4.07641 -90.0248 112 118 110 0.361525 -0.00380553 0.932355 
-6.45615 -3.38373 -90.8734 68 70 67 -0.0984692 -0.0961522 0.990484 
-7.81032 -4.64652 -90.7505 141 144 139 0.39801 0.183808 0.898778 
-6.84209 -1.18367 -90.715 159 160 151 0.0708568 0.297599 0.952058 
-3.37605 -2.60957 -90.7103 39 41 49 0.142908 -0.0400144 0.988927 
-4.311 -2.23012 -90.4484 59 77 54 0.237183 0.0131106 0.971377 
-9.65379 -3.33566 -90.2859 53 65 47 0.497552 0.497552 0.710551 
-10.3421 -1.58971 -90.4498 107 105 95 0.36896 0.0459559 0.928308 
-10.295 -5.00723 -90.0959 81 78 85 0.410526 0.0468027 0.910647 
-2.85317 -3.58315 -90.6561 46 46 51 0.325463 -0.301684 0.896137 
-5.78231 -0.610485 -90.3687 122 122 117 -0.194297 -0.135881 0.971486 
-9.43127 -2.54597 -85.6965 106 125 109 -0.0911942 0.809167 0.580458 
-5.1282 -0.0156217 -85.4315 94 116 89 0.306176 -0.191535 0.932508 
-7.72866 -3.73943 -90.8403 75 82 73 -0.0196541 0.412736 0.910639 
-2.84353 -0.795486 -90.4365 95 99 92 0.0910319 0.131228 0.987164 
