ply
format ascii 1.0
comment Created by CloudCompare v2.11 alpha (Anoia)
comment Created 15/10/2019 14:55
obj_info Generated by CloudCompare!
element vertex 738
property float x
property float y
property float z
property uchar red
property uchar green
property uchar blue
property float nx
property float ny
property float nz
end_header
-36.1595 68.6664 -85.1406 105 108 97 0.287447 0.149796 0.94601 
-39.1292 70.1297 -83.7305 106 98 112 0.352432 0.0563367 0.93414 
-32.5337 66.3378 -86.7695 32 34 43 0.489687 0.128561 0.862368 
-36.3691 70.5552 -85.1267 99 93 102 0.335142 0.029309 0.941712 
-33.3639 66.3719 -80.0484 86 102 85 0.529816 0.0458895 0.84687 
-34.0351 63.9966 -85.9654 45 41 55 0.608398 0.225621 0.760886 
-34.2993 67.3637 -85.3944 84 94 80 0.530326 -0.0633015 0.845427 
-32.3761 65.8988 -86.9126 53 56 62 0.541902 0.149951 0.826957 
-37.8683 63.2807 -83.8234 148 143 154 0.232021 0.429612 0.872697 
-34.0157 68.0293 -79.9403 108 126 107 0.473764 0.33116 0.816015 
-37.9669 64.8361 -83.8453 160 157 167 0.502829 -0.0892345 0.859767 
-31.9983 63.8443 -86.9826 85 88 91 0.518422 0.0956867 0.849755 
-34.6947 65.2878 -85.599 86 83 94 0.25048 -0.20668 0.945803 
-39.5418 67.9354 -83.4398 113 105 119 0.410174 0.0749486 0.908923 
-34.5411 63.2843 -85.5717 159 158 164 0.336015 0.112005 0.935173 
-36.7038 68.8466 -85.0085 103 97 104 0.26928 0.16644 0.94857 
-37.651 63.6007 -83.9914 69 60 74 0.426207 -0.0278827 0.904196 
-36.8516 64.4507 -84.5434 86 80 91 0.45089 0.00131455 0.892578 
-36.8584 68.7928 -84.9262 114 108 115 0.269158 0.169069 0.94814 
-37.1957 66.6154 -81.1482 132 155 131 0.209195 0.813875 0.542074 
-33.7221 66.7933 -80.1603 97 118 96 0.254362 0.49485 0.830917 
-36.3458 68.7805 -85.0627 142 133 138 0.0548753 0.218282 0.974342 
-33.9039 65.9149 -86.1976 83 83 91 0.427964 0.113656 0.896621 
-38.1137 66.8952 -83.8591 136 148 130 0.317672 0.335739 0.886772 
-36.1853 70.3763 -85.2727 119 115 123 0.323552 0.050273 0.944874 
-37.5272 63.6932 -84.0614 129 120 134 0.426207 -0.0278827 0.904196 
-33.9752 68.1528 -85.9498 109 95 99 0.0688966 0.39852 0.914568 
-39.0898 69.4363 -83.7552 72 64 78 0.290524 0.0311721 0.95636 
-31.1105 64.6027 -83.849 99 122 104 0.446283 0.0417969 0.893915 
-34.2635 69.8827 -86.2353 78 74 81 0.493457 -0.150819 0.856594 
-37.3377 66.2879 -84.0728 133 141 126 -0.139523 0.637604 0.757624 
-37.3082 66.5922 -84.2777 147 163 140 0.16777 0.444955 0.879698 
-35.8268 65.3658 -84.9187 54 49 54 0.416761 -0.320704 0.850564 
-37.0618 65.7746 -84.3822 85 85 80 0.488236 -0.0256966 0.872333 
-34.9993 67.6611 -85.3259 60 58 52 0.598297 0.365535 0.713039 
-31.6237 64.1 -87.0968 97 108 100 0.19471 0.138715 0.971003 
-36.9238 64.4901 -84.3294 145 154 147 0.102396 -0.0319299 0.994231 
-33.1798 65.1435 -81.6237 113 124 118 0.539182 -0.257869 0.80174 
-32.1368 64.9292 -87.0676 103 105 115 0.51392 0.305189 0.801715 
-36.46 70.0995 -85.1532 101 95 103 0.306237 0.0906882 0.947626 
-34.4915 68.4857 -80.9107 105 124 99 -0.00412479 0.622844 0.782336 
-36.0766 70.6402 -85.3793 126 122 131 0.357286 0.059328 0.932109 
-36.7427 64.3099 -84.5735 72 67 78 0.264659 -0.0307743 0.963851 
-38.0467 69.6045 -84.2771 148 141 154 0.410048 0.0952636 0.907075 
-34.0448 67.9862 -79.8074 91 108 90 0.531842 0.105215 0.840282 
-33.5744 67.4628 -80.1914 114 133 114 0.296609 0.270565 0.91587 
-37.9223 65.5781 -83.8737 95 100 97 0.117375 0.517318 0.847706 
-34.0736 63.8064 -85.8529 63 59 72 0.386275 -0.02211 0.922118 
-38.4497 66.9832 -83.9872 84 85 88 0.408698 0.0633954 0.910465 
-36.8014 69.5935 -84.9137 173 166 175 0.370397 0.107976 0.922576 
-31.9694 64.5414 -87.1076 46 54 58 0.432801 0.10785 0.895015 
-37.9167 67.2379 -84.1513 93 108 87 0.358655 0.540417 0.761128 
-31.9356 66.1141 -87.1269 60 69 69 0.508885 0.135606 0.850086 
-36.8007 70.3528 -84.8791 110 103 113 0.286967 0.214175 0.933691 
-36.9899 70.3353 -84.8161 171 164 174 0.280345 0.213397 0.935878 
-33.5182 65.414 -81.7315 92 102 95 0.20977 -0.0699234 0.975247 
-33.6573 67.96 -86.2989 80 70 77 0.529277 0.246789 0.811764 
-35.0023 68.7578 -85.834 137 129 127 0.29338 0.129945 0.947123 
-33.9702 69.4456 -86.4557 123 117 124 0.413752 0.0468651 0.909183 
-36.9244 66.3425 -80.6063 76 90 78 0.224003 0.00117279 0.974588 
-34.539 67.978 -79.759 121 142 121 0.519147 0.142655 0.842695 
-33.0481 65.6602 -86.5772 72 74 82 0.418813 0.0277447 0.907649 
-36.6555 67.9736 -84.9973 142 152 136 0.344325 0.435516 0.831725 
-39.7674 68.6762 -83.4148 58 51 65 0.447159 0.0877602 0.890139 
-34.5708 68.57 -85.9858 120 120 113 0.338716 0.293952 0.893792 
-36.9805 69.7028 -84.757 140 134 143 0.401284 -0.0603939 0.913961 
-33.9334 65.9662 -86.1423 63 64 71 0.410174 0.0749486 0.908923 
-36.4486 63.5074 -84.5698 137 133 145 0.386665 -0.0827599 0.918499 
-37.8157 64.8308 -84.0374 123 117 129 0.470926 0.112396 0.874983 
-35.0033 63.8721 -85.4003 69 71 77 0.39717 -0.0356265 0.917053 
-32.1517 64.0522 -86.8842 65 72 73 0.279666 0.394556 0.875279 
-37.1598 68.9151 -84.7797 200 195 203 0.315857 0.512673 0.798373 
-32.396 64.8149 -86.5909 74 75 82 0.256414 0.220377 0.941109 
-37.1798 66.3544 -84.1397 137 141 128 0.0995279 0.540913 0.835169 
-34.9716 67.4702 -85.0731 51 56 43 0.288731 0.601391 0.744959 
-34.014 66.3843 -85.9813 56 54 65 0.4033 0.097728 0.909834 
-32.3643 64.7202 -87.1464 61 71 72 0.194776 0.27766 0.940727 
-37.9011 63.2052 -83.8886 117 107 121 0.470583 0.121579 0.87394 
-36.4478 67.7023 -84.8955 138 135 129 0.326428 0.561198 0.760593 
-32.4751 68.4582 -87.0607 114 111 121 0.50566 0.132608 0.852481 
-36.4976 65.4496 -84.5172 98 93 94 0.447855 -0.190671 0.873539 
-32.997 66.9145 -86.7597 76 76 88 0.427155 0.107839 0.897725 
-34.7662 63.3957 -85.5284 124 126 129 0.438224 0.00921191 0.898819 
-34.4252 64.7526 -85.6914 74 69 84 0.335365 -0.106401 0.93606 
-35.9817 70.8384 -85.4197 117 113 122 0.373857 0.0515209 0.926054 
-33.2433 68.3355 -81.0713 103 120 96 0.519402 0.277747 0.808133 
-33.0638 67.6526 -86.7698 61 60 72 0.278697 0.028489 0.959956 
-39.0828 66.6342 -83.5488 86 79 91 0.41241 0.214335 0.885425 
-36.4986 65.0193 -84.6656 53 45 53 0.4966 -0.26145 0.827667 
-34.0586 65.5882 -80.482 95 105 93 -0.146451 -0.542902 0.826928 
-37.1298 64.6553 -84.3831 57 54 64 0.351181 0.0217093 0.936056 
-32.1803 66.9996 -87.0886 35 32 47 0.512057 0.145254 0.846581 
-34.1569 68.155 -85.6982 150 140 139 0.0460465 0.542791 0.838605 
-34.808 67.9953 -80.0417 120 142 119 -0.0943458 0.805568 0.584944 
-35.3175 70.5208 -85.8032 76 69 79 0.367628 0.0650317 0.927696 
-34.0157 65.7662 -86.1049 61 63 68 0.417602 0.080782 0.905032 
-32.8009 63.6394 -86.4988 72 70 79 0.341022 0.0088087 0.940014 
-33.6078 66.7781 -80.0761 97 118 98 0.26322 0.521767 0.811464 
-33.3918 66.3048 -86.486 35 37 47 0.484885 0.0174612 0.874404 
-36.2416 63.2438 -84.7451 137 131 145 0.385251 -0.0012799 0.922811 
-32.9605 66.8408 -86.762 36 34 47 0.458081 0.0938575 0.883942 
-39.2968 68.8469 -83.6232 106 98 112 0.411106 0.0778506 0.908257 
-35.4525 65.3916 -85.0757 85 81 91 0.396431 -0.507367 0.765128 
-37.8102 67.5192 -84.3051 115 115 116 0.528379 0.0868763 0.844552 
-38.4994 69.3937 -83.933 74 70 80 0.327387 0.171356 0.929223 
-36.9089 62.9066 -84.3421 135 128 141 0.40267 0.0548488 0.9137 
-37.9407 67.4533 -84.199 78 78 79 0.503727 0.110504 0.856766 
-34.3259 71.1531 -86.3029 151 146 157 0.414259 0.060722 0.908131 
-34.0346 65.0664 -80.3482 150 162 144 0.580048 -0.453006 0.677001 
-32.5405 66.4982 -80.9567 57 68 58 0.525978 0.136256 0.839513 
-34.2161 65.0713 -80.3051 116 126 114 0.771946 -0.29127 0.565032 
-34.1572 71.1142 -86.3771 103 98 108 0.422757 0.0360077 0.905527 
-38.6309 67.375 -83.7968 110 117 112 0.405013 0.226985 0.885687 
-33.1666 64.0718 -86.3375 43 42 51 0.429051 -0.1478 0.891106 
-33.662 63.4768 -86.0841 137 133 144 0.37992 -0.0711511 0.922279 
-35.2005 68.989 -85.6757 145 138 136 0.429371 0.0305744 0.90261 
-33.6982 71.6664 -86.6722 86 79 90 0.369983 0.0623268 0.926946 
-35.7733 64.5883 -85.1603 111 123 113 0.323644 0.039656 0.945348 
-36.0475 65.0318 -84.7983 86 80 87 0.576061 -0.676246 0.459179 
-32.6682 67.3064 -86.9522 144 142 156 0.543036 0.108607 0.832656 
-34.3488 68.1432 -85.8255 101 97 92 0.595064 0.263596 0.75922 
-38.8153 65.1175 -83.4495 118 111 124 0.261473 0.454137 0.851699 
-34.4557 71.0239 -86.1423 146 141 151 0.43925 -0.0118716 0.898286 
-35.5373 67.8147 -85.1774 117 111 102 0.283206 0.456534 0.843428 
-30.9177 64.9387 -83.9999 68 91 75 0.492401 -0.0202357 0.870133 
-33.6638 67.8321 -80.1336 94 112 93 0.676096 0.196485 0.710132 
-33.1086 65.467 -81.5947 71 82 76 0.345322 -0.163573 0.92412 
-34.0613 70.7788 -86.3898 170 166 176 0.447678 0.0172695 0.894028 
-36.5896 65.0208 -84.5787 121 123 119 0.572331 -0.153917 0.805448 
-35.3364 67.1589 -85.01 76 85 80 0.0960322 -0.0408413 0.99454 
-35.9264 64.7904 -84.9815 86 93 91 0.317701 -0.0745224 0.945258 
-34.781 65.6962 -85.4908 76 83 80 0.379498 -0.0326029 0.924618 
-34.4489 65.436 -85.7055 56 52 63 0.423997 -0.0305703 0.905147 
-33.4305 65.9656 -81.4597 68 80 72 0.289923 -0.418777 0.860564 
-34.197 64.8146 -81.5714 98 106 97 0.779536 -0.428012 0.457306 
-34.3592 68.1698 -85.8238 133 122 122 0.180865 0.366002 0.912869 
-36.2938 66.878 -84.8674 83 92 73 0.451755 0.111877 0.8851 
-38.6807 66.995 -83.7377 77 74 81 0.34365 0.18526 0.920643 
-35.3298 70.3094 -85.774 116 108 118 0.425252 0.0811971 0.901425 
-35.6681 65.0328 -85.2732 61 56 70 0.479965 -0.185745 0.857399 
-34.5319 66.9476 -85.1468 60 70 65 0.379547 -0.0141526 0.925064 
-39.0177 69.529 -83.8371 114 108 116 0.39803 0.136427 0.907171 
-33.0373 63.9933 -86.4116 52 50 59 0.278536 0.261396 0.92417 
-33.1701 67.395 -86.4879 68 63 75 0.41587 0.293104 0.860896 
-36.2717 68.0544 -85.0455 158 152 150 0.115329 0.343273 0.932128 
-32.7943 67.3301 -86.8093 44 41 54 0.571331 0.167329 0.803481 
-33.9059 70.836 -86.4695 89 85 95 0.417107 0.014383 0.908744 
-34.2253 67.8583 -86.1078 77 81 79 0.461401 0.273137 0.844101 
-38.0714 69.5543 -84.3442 128 130 133 0.403989 0.0862756 0.910686 
-34.8808 65.3176 -85.569 144 150 148 0.422979 -0.0304969 0.905626 
-38.4962 64.3022 -83.5077 86 78 89 0.472522 0.0973254 0.875929 
-33.2489 67.1099 -80.3085 76 94 74 0.504598 0.129421 0.853599 
-34.1148 70.3774 -86.3829 162 156 166 0.438211 0.0118436 0.898794 
-35.9466 63.3501 -84.88 144 143 151 0.426207 -0.0278827 0.904196 
-33.9706 70.4542 -86.5338 83 79 90 0.36838 -0.0245586 0.929351 
-35.4168 65.5543 -79.8117 139 156 139 0.540388 -0.480159 0.690961 
-33.3988 64.8703 -86.3511 109 111 121 0.520615 0.111045 0.84654 
-34.3487 68.0903 -79.7254 111 130 111 0.542454 0.321632 0.776077 
-32.4911 64.3598 -86.8188 91 94 99 0.212901 0.360628 0.908086 
-33.9105 65.8038 -86.2054 55 54 65 0.449766 -0.0226885 0.892858 
-36.6769 65.879 -84.3359 84 85 80 0.549074 -0.209535 0.809081 
-33.9729 65.0711 -86.0786 56 58 68 0.359753 0.0815798 0.929474 
-34.0488 70.7485 -86.4027 144 140 150 0.515275 -0.00672683 0.856998 
-34.4489 70.4246 -86.196 94 86 97 0.435151 -0.00130676 0.900357 
-34.517 70.0347 -86.13 127 119 128 0.420038 0.0752511 0.904381 
-38.8 68.8492 -83.9207 57 54 63 0.439396 0.0873247 0.894039 
-34.5196 70.6079 -86.1223 117 111 121 0.441437 -0.00392971 0.897283 
-37.5642 63.1451 -83.969 134 129 140 0.398444 0.0715848 0.914395 
-37.5894 66.9758 -83.5578 96 108 94 0.453962 -0.758789 0.467073 
-32.9264 63.6444 -86.4647 79 75 85 0.350841 0.104304 0.930608 
-34.2024 65.1908 -80.2132 96 106 94 0.673635 -0.466363 0.573342 
-35.1784 65.3692 -85.3378 48 46 56 0.499942 -0.0230325 0.865753 
-36.7714 66.6519 -84.4367 103 109 94 0.123504 0.521624 0.844189 
-34.1547 69.9767 -86.3218 89 81 91 0.478486 -0.0827879 0.874184 
-33.1144 67.5758 -86.6233 59 54 66 0.4345 0.252828 0.864458 
-34.6364 66.0947 -80.2017 88 101 83 0.535312 -0.558953 0.633255 
-32.8692 67.4046 -80.9107 88 105 87 0.444432 0.0995415 0.890265 
-34.689 65.9064 -85.5152 67 65 74 0.472525 0.192289 0.860084 
-34.1112 69.8037 -86.3879 86 79 88 0.49572 -0.154453 0.854638 
-34.2403 67.1682 -80.2707 83 103 80 0.428192 -0.719164 0.547226 
-33.0155 67.5297 -80.589 90 109 88 0.552365 0.43957 0.708288 
-38.5043 65.158 -83.746 57 48 62 0.468351 -0.121743 0.875115 
-34.09 69.8164 -86.4745 72 65 74 0.450867 0.0172899 0.892424 
-33.8058 69.9175 -86.5689 159 153 162 0.464709 -0.0365806 0.884708 
-34.7227 69.5764 -86.0317 114 103 112 0.431779 0.0841487 0.898045 
-38.9733 69.072 -83.7301 65 61 72 0.373255 0.197436 0.906477 
-33.5871 69.8031 -86.6363 80 75 85 0.406106 0.0275994 0.913409 
-33.8766 69.7018 -86.5533 155 147 156 0.4679 -0.0393307 0.882906 
-34.3462 68.9453 -86.187 138 126 131 0.403565 0.109559 0.908368 
-34.0399 69.6747 -86.468 103 95 103 0.46354 -0.0448587 0.88494 
-38.3729 66.6831 -83.7559 122 127 123 0.152979 0.00334991 0.988224 
-34.3444 69.7208 -86.3137 137 128 137 0.507291 0.083371 0.857732 
-32.3435 66.2475 -86.9583 74 73 86 0.529218 0.14594 0.835841 
-36.5889 65.887 -84.2159 79 90 74 0.582652 -0.171012 0.794526 
-37.9855 63.9472 -83.7195 95 87 99 0.448158 0.0907486 0.889336 
-31.7019 64.1237 -87.1476 97 102 104 0.351373 0.379236 0.855989 
-34.5512 63.6866 -85.6413 121 115 128 0.451641 -0.0447573 0.891076 
-36.6083 62.8897 -84.4484 104 97 111 0.410506 -0.121891 0.903674 
-35.7951 69.7494 -85.3782 124 114 121 0.333204 0.126482 0.934332 
-37.9131 64.7639 -83.9407 106 106 112 0.501755 -0.0569861 0.86313 
-32.0705 65.0948 -87.0784 90 102 100 0.347717 0.0481855 0.936361 
-34.4765 64.8362 -81.5271 84 95 85 0.623411 -0.148717 0.767621 
-35.6557 68.8574 -85.2806 138 124 127 0.259455 0.265126 0.92865 
-37.3134 64.9685 -84.2513 87 98 88 0.418305 0.00651566 0.908283 
-35.1121 65.889 -85.4959 36 38 48 0.222553 -0.0202321 0.974711 
-37.149 66.9286 -84.5644 121 129 118 0.380538 0.214326 0.899586 
-34.0598 70.2054 -86.4028 154 148 158 0.460442 -0.0255055 0.887323 
-33.5977 65.2489 -86.3067 47 47 59 0.441603 0.111459 0.89026 
-36.7662 63.8025 -84.5046 108 100 113 0.433397 0.0961556 0.896059 
-37.8221 67.1975 -84.0035 96 105 92 0.129828 0.658092 0.74166 
-38.7881 67.7845 -83.8814 86 87 92 0.366791 0.00126917 0.930303 
-35.6846 65.5308 -85.3291 66 61 72 0.396226 0.0546978 0.916522 
-32.1736 66.1771 -86.8943 70 72 81 0.415717 0.0749654 0.906399 
-33.9182 69.649 -86.5265 134 126 135 0.460345 -0.0420965 0.886741 
-33.9545 70.1435 -86.4978 83 77 87 0.491794 -0.0770617 0.867295 
-34.0702 68.0396 -79.8977 89 108 88 0.546618 0.318994 0.774242 
-35.9578 68.5249 -85.2938 143 143 133 0.4351 -0.0555736 0.898665 
-37.5803 65.6318 -84.2234 93 89 97 0.445159 0.0818206 0.891705 
-36.0732 65.4214 -84.336 93 94 87 0.657297 -0.532898 0.532898 
-31.4316 64.198 -87.368 85 97 88 0.353669 0.285024 0.890887 
-33.9497 67.5459 -80.1569 123 142 121 0.525093 -0.0344549 0.850347 
-35.1184 64.9828 -85.4259 86 83 95 0.436415 0.0472896 0.898502 
-33.691 69.5421 -86.5545 171 161 171 0.430569 0.0251717 0.902207 
-35.4404 62.9991 -85.1524 87 84 93 0.457288 0.174975 0.871935 
-35.0556 71.1204 -85.944 152 146 157 0.370042 0.0596843 0.927096 
-32.9144 63.6526 -86.4094 94 90 99 0.3507 0.15509 0.923556 
-36.7478 66.7376 -84.5731 129 134 120 0.169356 0.547033 0.819801 
-37.4479 67.3867 -84.3987 94 96 92 0.311707 0.323639 0.893362 
-35.2867 66.2207 -85.4499 43 46 53 0.223719 -0.491573 0.841609 
-33.3997 70.2607 -86.8103 127 123 131 0.384641 0.0656705 0.920727 
-35.1232 64.6141 -85.4165 137 141 144 0.549592 0.156388 0.820665 
-34.3015 66.9585 -80.1095 66 83 69 0.446377 -0.0787723 0.891371 
-35.2658 68.7419 -85.4199 100 96 92 0.454121 0.214321 0.864778 
-33.8477 67.1535 -86.0095 112 114 111 0.460376 0.121152 0.879418 
-33.7732 65.2974 -80.5571 95 105 93 0.666456 -0.630074 0.398551 
-36.2935 65.1701 -84.6922 100 93 95 0.515813 -0.198157 0.833469 
-36.1074 64.9535 -84.797 90 83 92 0.618718 -0.250321 0.744666 
-34.954 64.4049 -85.4803 60 57 70 0.51679 0.178255 0.837349 
-32.6864 66.0225 -86.8032 63 63 75 0.336296 0.213226 0.9173 
-36.4576 66.5728 -80.5313 94 113 93 0.583111 0.204627 0.786199 
-35.3024 67.4176 -85.0746 79 92 76 0.0721487 0.331884 0.940557 
-33.6584 66.3184 -79.8114 153 169 153 0.512977 0.0866804 0.854015 
-38.702 66.837 -83.697 114 111 118 0.526566 0.165577 0.833854 
-38.4355 69.3656 -84.0717 99 92 105 0.396168 0.0716617 0.915377 
-35.8817 65.9352 -84.6773 46 47 46 0.408602 -0.355374 0.840687 
-35.773 63.2003 -84.9424 112 113 118 0.474155 0.185797 0.860614 
-34.6461 67.4559 -85.3316 76 87 71 0.17333 0.391067 0.903894 
-36.5914 64.8964 -85.2026 102 112 101 0.317477 0.0420753 0.947332 
-33.5271 64.7157 -86.2974 36 36 48 0.447672 0.073005 0.891212 
-31.2113 64.9606 -83.8306 99 121 106 0.423333 0.0753505 0.902835 
-34.892 71.6256 -86.0448 167 161 172 0.272778 0.151842 0.950019 
-32.3957 65.4984 -86.8916 126 126 137 0.43157 0.027886 0.901649 
-39.1418 67.2114 -83.6214 65 61 73 0.460039 -0.0617962 0.885746 
-36.9478 62.7916 -84.2573 75 71 78 0.401115 -0.112423 0.909103 
-34.5409 66.9389 -80.0029 72 89 77 0.607443 -0.229548 0.760474 
-34.0458 66.5828 -85.9807 68 71 74 0.653075 -0.0706416 0.753991 
-37.6518 64.4546 -83.9796 122 122 127 0.480433 -0.00399252 0.877023 
-39.2081 69.0131 -83.6138 62 60 69 0.316862 0.19575 0.928052 
-37.8422 67.2305 -84.3001 106 131 97 0.530692 0.120678 0.83893 
-34.2703 65.8632 -85.8425 65 67 70 0.638349 -0.10762 0.762186 
-33.528 65.6983 -80.6557 79 90 79 0.482222 -0.695802 0.53228 
-36.6093 68.4922 -84.9636 154 148 153 0.230513 0.219601 0.947966 
-32.2505 64.6188 -86.9675 35 39 45 0.29833 0.071031 0.951816 
-36.314 66.1603 -84.8352 52 54 55 0.305212 -0.07403 0.949403 
-33.1804 64.5716 -86.5211 74 73 85 0.544916 -0.00951225 0.838437 
-32.2116 67.1868 -87.1568 44 42 56 0.261285 0.124734 0.957169 
-32.5814 65.7684 -81.5574 73 83 75 0.291483 -0.321075 0.901082 
-32.4246 67.3034 -87.0589 42 39 53 0.255524 0.177109 0.950442 
-32.8795 67.0944 -86.8344 47 47 59 0.45938 0.118045 0.880361 
-36.7374 64.3793 -84.5088 71 77 75 0.328198 0.0476209 0.943408 
-33.8395 68.3906 -86.0945 127 113 119 0.528319 0.0344856 0.848345 
-32.7762 65.351 -86.6983 45 44 55 0.434119 0.0813111 0.897179 
-35.0656 65.6663 -84.7013 69 69 71 0.542751 -0.689711 0.479291 
-34.2175 71.6968 -86.4166 70 67 77 0.314578 0.0290574 0.948787 
-35.9372 66.6299 -80.6528 64 82 62 0.484075 -0.544375 0.685075 
-38.7497 65.1399 -83.6147 89 80 95 0.483837 0.0916892 0.870342 
-36.7435 68.1843 -84.9287 177 172 175 0.346232 0.421432 0.838164 
-32.9554 66.3267 -80.6874 103 115 103 0.59473 -0.225159 0.771751 
-33.3726 65.2081 -86.4147 55 57 69 0.440842 0.0787711 0.894122 
-37.5798 66.0405 -84.0558 94 92 92 0.564322 -0.359409 0.743213 
-36.7064 65.7733 -84.4283 101 113 96 0.568741 -0.115503 0.814367 
-31.7307 64.5218 -87.2502 51 61 60 0.45753 0.109071 0.88248 
-34.5553 70.032 -86.2793 115 106 116 0.413372 0.0777631 0.907236 
-37.6278 68.9067 -84.5279 110 105 115 0.305322 0.0392738 0.951439 
-34.2357 67.0216 -85.5842 53 60 57 0.654453 -0.0527554 0.75426 
-36.2619 66.9163 -80.7142 101 118 97 0.478017 0.353317 0.804156 
-37.2963 67.864 -84.5833 108 107 109 0.466274 0.224838 0.855591 
-34.6909 66.1402 -85.5566 61 61 66 0.591338 0.141504 0.793912 
-33.1003 66.4057 -80.7335 99 111 98 0.80442 -0.44797 0.390168 
-38.7383 65.0218 -83.6276 81 73 88 0.413388 0.194278 0.889588 
-33.3386 67.6457 -80.5985 64 82 62 0.500751 -0.605284 0.618773 
-36.344 64.3209 -84.6145 111 116 114 0.369045 -0.193856 0.90897 
-36.3483 65.4383 -84.5491 87 89 86 0.549897 -0.286834 0.784436 
-35.5731 68.0944 -85.1238 147 153 137 0.485976 0.271712 0.830662 
-39.7661 68.9727 -83.4496 82 77 87 0.466327 0.115512 0.877038 
-37.622 64.9437 -84.1641 76 70 81 0.571995 -0.217389 0.790926 
-37.7434 63.3636 -83.8829 73 65 79 0.495997 -0.0341595 0.867652 
-33.6152 63.6213 -86.0679 155 155 161 0.34611 -0.0427776 0.937218 
-33.0827 66.8358 -80.6787 102 120 105 0.10785 0.743131 0.660397 
-34.2155 71.6578 -86.3072 85 77 90 0.423851 0.0869792 0.901546 
-33.0586 67.6277 -86.5086 51 51 60 0.574226 -0.112507 0.81093 
-35.0392 64.756 -85.4526 93 98 99 0.325964 0.0370704 0.944655 
-33.632 66.7194 -80.0646 75 92 72 0.558995 0.150556 0.815388 
-34.6678 66.8765 -85.0266 59 68 65 0.379547 -0.0141526 0.925064 
-31.9613 66.247 -87.1594 51 50 63 0.316796 0.247361 0.915671 
-33.1144 65.7872 -81.5599 94 105 97 0.216679 -0.370826 0.903071 
-38.6871 66.9694 -83.8039 78 78 80 0.19524 0.316035 0.928441 
-34.4796 67.1883 -84.3563 100 109 95 0.736819 -0.388922 0.553025 
-33.1781 66.6795 -86.5889 73 71 83 0.50726 0.0148796 0.861665 
-37.0297 66.5871 -84.4147 93 98 86 0.358807 0.460868 0.811701 
-33.0198 68.6361 -86.7612 98 90 100 0.297862 0.0364473 0.953913 
-37.6669 63.876 -84.0478 88 88 92 0.413372 0.0777631 0.907236 
-34.5907 68.3902 -85.8369 156 144 146 0.116106 0.220729 0.9684 
-37.897 63.703 -83.791 88 82 94 0.515191 -0.10189 0.850998 
-35.4418 64.9375 -85.2775 72 66 79 0.465504 0.0649219 0.882662 
-34.9155 63.687 -85.5287 129 123 137 0.465314 0.112415 0.877978 
-34.2352 69.4289 -86.3211 105 95 103 0.484633 0.110079 0.867764 
-38.6687 64.9623 -83.5673 86 77 91 0.340953 0.356243 0.869967 
-35.5198 70.604 -85.6719 124 118 127 0.331281 0.055863 0.941877 
-36.8058 70.1734 -84.8917 146 138 148 0.387807 0.0684365 0.919196 
-33.8223 66.1803 -86.2573 77 76 87 0.423244 0.0780741 0.902646 
-35.1215 69.6987 -85.7481 136 124 133 0.349327 0.053642 0.935464 
-35.6081 70.5781 -85.6055 115 109 118 0.322765 0.0501508 0.945149 
-34.3139 68.1858 -79.7928 87 101 88 0.493082 0.247309 0.834092 
-33.4259 69.8607 -86.6929 122 114 124 0.418132 0.0694617 0.905726 
-31.7416 64.1243 -87.1392 92 97 99 0.311654 0.372465 0.874152 
-33.6392 69.9754 -86.6039 118 111 122 0.418132 0.0694617 0.905726 
-34.0496 65.9236 -86.0417 77 79 83 0.48471 0.103765 0.868498 
-36.7592 67.1851 -84.7727 126 126 118 0.330222 0.401538 0.854237 
-33.1059 63.5224 -86.3544 127 122 133 0.333638 -0.0532263 0.941197 
-36.8182 65.0527 -84.2592 113 118 114 0.477529 -0.0201773 0.878384 
-36.2682 66.2364 -80.5803 133 149 134 0.576712 0.128322 0.806807 
-31.736 64.4599 -87.2366 46 49 53 0.308457 0.220326 0.925371 
-37.2958 62.856 -84.0258 91 85 96 0.482531 0.103908 0.869694 
-33.302 66.7457 -80.7315 89 99 89 0.600444 0.100805 0.793288 
-33.0808 68.0076 -80.8303 112 129 111 0.457183 0.402256 0.793205 
-39.3863 68.162 -83.5068 95 87 101 0.436175 0.0844656 0.895889 
-33.8012 68.3683 -80.2809 61 79 62 0.598083 0.181099 0.780704 
-34.0124 64.6385 -85.9608 52 56 62 0.45319 0.19762 0.869233 
-32.6577 65.4553 -86.7237 76 76 87 0.427544 0.101664 0.89826 
-32.6467 66.4531 -86.8117 34 33 46 0.402697 -0.0718617 0.912508 
-37.7611 70.6764 -84.4918 79 76 85 0.399914 0.139899 0.905813 
-33.6116 67.7422 -80.0563 106 124 105 0.543973 0.0932935 0.8339 
-36.1348 70.0284 -85.269 114 107 115 0.302261 0.0417348 0.952311 
-37.987 63.6357 -83.8496 95 86 100 0.50021 -0.157883 0.851389 
-36.3199 63.011 -84.6405 65 58 72 0.358205 0.0218261 0.933388 
-38.6534 65.0003 -83.5457 87 81 93 0.490351 0.10722 0.864905 
-37.0543 64.6922 -84.5053 116 112 122 0.553724 -0.251125 0.793931 
-35.8125 64.6722 -85.0704 81 87 86 0.34525 -0.0953802 0.933652 
-33.9177 64.3475 -85.9804 60 63 71 0.476814 0.106749 0.872498 
-35.5943 71.1332 -85.6539 101 94 105 0.447048 0.0905237 0.889918 
-36.469 68.4238 -85.1577 139 146 134 0.380992 0.362331 0.850624 
-34.8331 66.2734 -80.2713 110 126 106 0.463082 -0.743238 0.482858 
-34.6331 65.5213 -85.6076 146 144 152 0.536296 0.143308 0.831775 
-33.6032 67.9387 -86.1206 99 89 96 0.214541 0.239138 0.946987 
-34.9458 64.8341 -81.1982 87 94 85 -0.366586 -0.751094 0.549065 
-38.5237 66.7575 -83.8791 77 75 80 0.306222 0.333109 0.891777 
-33.838 68.9427 -86.4981 89 81 87 0.420899 0.0808894 0.903494 
-36.0823 67.2844 -84.8806 116 121 107 0.25475 0.492517 0.832184 
-38.671 66.4167 -83.7364 94 90 98 0.436071 0.0872142 0.895676 
-37.9327 64.6831 -83.8967 155 154 161 0.44495 0.0530674 0.893982 
-36.7585 64.3335 -84.5549 73 68 78 0.455997 0.0419464 0.888992 
-37.749 63.6525 -83.9301 101 97 107 0.413458 0.0750502 0.907425 
-38.6653 69.7049 -83.9801 107 100 113 0.361906 0.238829 0.901102 
-33.2876 65.0367 -86.3859 60 59 72 0.471595 0.124708 0.872953 
-37.9661 64.3394 -83.8646 74 69 79 0.455142 0.112013 0.883345 
-34.1872 63.3089 -85.7922 110 106 117 0.461099 0.130717 0.877668 
-36.1321 63.626 -84.7234 101 100 109 0.367497 -0.0244998 0.929702 
-34.0595 67.757 -85.8744 88 89 83 0.491013 0.122393 0.862512 
-32.7747 65.853 -81.5905 76 88 79 0.189976 -0.164129 0.967973 
-33.9015 64.6104 -85.9892 24 28 35 0.447855 0.190671 0.873539 
-34.8598 64.1437 -85.5969 106 111 114 0.573642 0.164113 0.802497 
-33.7269 69.9031 -86.5742 161 154 164 0.416746 0.075151 0.905911 
-32.7559 67.7632 -86.946 106 102 115 0.220037 0.00823667 0.975457 
-36.8297 64.1445 -84.4194 95 100 98 0.321281 0.0448002 0.945924 
-33.913 68.1902 -79.9581 110 129 111 0.267763 0.320438 0.908638 
-36.2841 67.851 -85.0511 128 123 118 0.512656 0.0628598 0.85629 
-39.4513 70.3375 -83.5863 108 100 114 0.452744 0.11496 0.884199 
-35.9061 62.9907 -84.9282 157 150 165 0.446753 -0.20334 0.871243 
-36.5469 67.1787 -80.7887 74 92 70 0.668182 0.185862 0.720408 
-32.3464 64.7509 -86.9627 46 52 57 0.61206 0.406381 0.678408 
-33.7118 67.5763 -86.0923 51 45 50 0.426793 0.294287 0.855127 
-33.9105 67.2374 -85.5684 74 83 72 0.409852 0.317055 0.855276 
-38.6147 66.3798 -83.8333 81 77 84 0.37962 0.327364 0.865287 
-36.5805 64.6611 -84.7768 105 100 110 0.34667 -0.0243053 0.937672 
-36.0042 65.5238 -83.9783 80 85 73 0.608269 -0.604899 0.513912 
-33.7839 67.2789 -85.67 82 86 80 0.477215 0.128315 0.869368 
-35.2896 64.3652 -85.3006 112 118 118 0.276927 0.0862982 0.957008 
-33.6879 67.3626 -80.83 85 98 89 0.613013 -0.116694 0.781407 
-34.2243 66.5262 -80.2054 79 100 75 0.591244 -0.346928 0.72806 
-35.9978 64.9085 -84.895 94 106 94 0.529116 -0.0316095 0.84796 
-32.9348 65.3815 -81.5693 86 97 89 0.526222 -0.175407 0.83206 
-39.0588 65.9062 -83.6228 102 95 110 0.473285 0.109438 0.874085 
-33.8494 65.3614 -86.1305 87 91 94 0.424697 0.0696449 0.902653 
-36.3065 67.4701 -84.9585 168 168 156 0.488521 0.131915 0.862523 
-37.6995 69.2423 -84.4262 123 117 129 0.387578 -0.0194437 0.921632 
-38.321 65.9512 -83.8024 88 86 92 0.439825 0.141833 0.886813 
-35.3154 63.3653 -85.2493 72 75 77 0.426711 -0.202282 0.881476 
-33.6625 63.7965 -86.0142 165 166 172 0.34611 -0.0427776 0.937218 
-34.4864 68.9039 -86.1353 146 132 138 0.534263 0.10859 0.838315 
-37.7744 70.4799 -84.5795 71 69 76 0.44162 0.0557121 0.89547 
-35.6334 64.5681 -85.1353 104 113 109 0.339067 0.0532633 0.939253 
-33.5491 67.0656 -80.6383 70 84 72 0.613013 -0.116694 0.781407 
-37.1946 64.9587 -84.275 152 162 153 0.511593 0.0203551 0.858987 
-39.0833 69.6748 -83.8097 75 70 82 0.412892 0.0663334 0.908361 
-34.4122 64.3478 -85.7861 65 62 75 0.539026 0.243882 0.806209 
-32.1101 65.5668 -87.0735 41 48 53 0.601086 0.00687741 0.799155 
-31.4818 64.2798 -87.3058 66 70 76 0.351785 0.37658 0.856992 
-32.985 69.4549 -87.0628 101 97 108 0.327605 0.0915172 0.940372 
-38.6902 69.6563 -83.9186 104 96 110 0.362798 0.222924 0.904811 
-34.7646 67.2897 -79.5376 87 105 89 0.569258 -0.400956 0.71776 
-34.3499 69.4667 -86.2084 118 113 118 0.513371 0.138947 0.846843 
-33.3913 65.6136 -86.3699 96 97 106 0.449492 0.0848885 0.889242 
-33.4189 63.5004 -86.2274 141 141 147 0.338204 -0.0723783 0.938285 
-31.9525 64.2738 -86.9782 95 95 113 0.661527 -0.523499 0.536965 
-32.8827 65.0896 -86.679 35 35 45 0.349467 0.316184 0.881987 
-38.5746 67.822 -83.8857 72 65 76 0.389799 0.252399 0.885636 
-32.0655 64.7177 -87.0828 34 36 44 0.482773 0.277866 0.830494 
-36.4499 64.3251 -84.7653 120 115 125 0.356339 -0.1252 0.925931 
-31.7833 64.637 -87.179 123 128 131 0.348918 0.0242837 0.936839 
-38.3217 66.9289 -83.9361 155 159 157 0.41211 0.227627 0.882242 
-38.6209 69.4233 -83.9516 77 69 82 0.413477 0.155948 0.89706 
-34.6418 67.5118 -85.2843 74 76 68 0.152128 0.110749 0.982136 
-31.6363 64.714 -87.2023 99 105 106 0.386672 0.0168118 0.922064 
-33.6763 66.8797 -86.4015 42 42 49 0.400221 0.206708 0.892802 
-37.5955 66.9436 -84.392 59 65 58 0.450389 0.053067 0.891254 
-33.6141 65.6014 -80.5389 92 102 90 0.583674 -0.546455 0.600593 
-34.8739 69.5122 -85.8718 152 140 148 0.431779 0.0841487 0.898045 
-33.7104 69.7076 -86.6748 137 131 140 0.419787 0.0304578 0.907111 
-36.4235 64.7182 -84.8475 91 87 97 0.261029 0.0157832 0.965202 
-38.0831 66.9766 -84.0323 84 89 90 0.393065 0.0519646 0.918041 
-33.8783 65.6771 -86.1398 48 52 56 0.422691 0.0665975 0.903824 
-37.3177 70.2024 -84.7484 136 130 141 0.314104 0.170197 0.934009 
-33.5141 65.5551 -80.8222 82 91 82 0.380667 -0.693769 0.611374 
-35.5681 68.1894 -85.2619 137 125 123 -0.00403779 0.523567 0.851975 
-34.374 63.4359 -85.7046 156 156 162 0.553724 0.251125 0.793931 
-34.5583 65.5229 -85.5287 131 129 140 0.411494 0.0249788 0.91107 
-37.6214 66.1265 -84.2136 89 89 89 0.420038 0.0752511 0.904381 
-36.1195 66.6923 -80.8193 60 80 58 0.316601 0.0499897 0.947241 
-32.3212 67.0618 -87.158 39 41 51 0.579334 0.16101 0.799029 
-35.6932 65.2394 -84.8507 87 83 87 0.630513 -0.637203 0.443199 
-35.3436 68.7862 -85.4286 108 92 97 0.337712 0.352994 0.872551 
-34.0246 65.5931 -86.1233 67 69 74 0.4143 0.0983788 0.904808 
-38.5583 67.4025 -83.9515 77 88 81 0.0666918 0.566171 0.821586 
-35.3991 69.6581 -85.6595 156 144 152 0.661583 -0.0352656 0.749042 
-34.0407 65.0382 -80.6422 112 125 109 0.675449 -0.534661 0.507844 
-34.2039 63.9842 -85.7614 55 50 63 0.58379 0.0123626 0.811811 
-32.4059 66.5368 -86.9898 81 85 94 0.478415 0.124991 0.869193 
-33.914 67.9295 -86.1732 81 73 75 0.602621 0.174563 0.778701 
-38.1414 63.9029 -83.6752 149 143 154 0.46143 0.093969 0.882186 
-32.4384 67.6396 -87.0499 165 165 177 0.651973 -0.283536 0.703234 
-36.2069 63.74 -84.784 108 102 115 0.425646 0.0956664 0.899819 
-38.4356 66.4631 -83.9399 75 74 82 0.336841 0.376831 0.862866 
-37.8507 66.2846 -83.972 105 117 106 0.477967 0.103536 0.872254 
-32.049 65.7428 -87.1732 59 68 69 0.593107 0.0123851 0.805029 
-34.0267 63.8565 -85.8287 90 94 99 0.33587 0.0724425 0.939118 
-33.0364 68.9823 -86.9047 158 150 159 0.377483 0.412231 0.8292 
-35.6095 67.8481 -85.2497 108 98 94 0.328734 0.0720333 0.941672 
-36.7363 69.014 -84.7843 116 110 117 0.370042 0.0596843 0.927096 
-34.0924 65.5444 -86.0717 69 74 77 0.45402 -0.0254465 0.890628 
-36.5134 64.4968 -84.7662 139 134 143 0.360648 -0.104792 0.926797 
-33.7876 64.1069 -86.1194 78 81 87 0.373527 -0.0432505 0.92661 
-32.8543 67.8387 -81.1606 106 123 104 0.566871 0.200162 0.79912 
-36.5304 65.7103 -84.7313 50 51 56 0.548901 -0.12149 0.827011 
-33.4554 63.6501 -86.2406 111 107 118 0.442827 -0.148571 0.884212 
-33.1484 66.8942 -80.7684 98 110 98 0.589568 0.109721 0.800232 
-34.562 66.3512 -85.2737 71 78 69 0.513511 -0.513511 0.687469 
-33.4366 63.7833 -86.2276 107 103 116 0.442827 -0.148571 0.884212 
-33.5377 67.0392 -86.3551 40 37 45 0.475632 0.106485 0.873175 
-34.9572 64.5992 -85.4081 51 47 61 0.246414 0.0662942 0.966895 
-33.5209 66.2901 -85.9348 61 64 68 0.480797 0.121993 0.868304 
-39.8241 69.8201 -83.5454 64 58 70 0.320762 0.152809 0.934752 
-38.7139 64.7379 -83.5741 74 66 80 0.434173 0.123039 0.892388 
-33.1577 65.203 -86.507 69 70 78 0.490322 -0.170354 0.85473 
-32.8356 63.8197 -86.6488 62 60 68 0.282669 0.204691 0.937123 
-32.9108 65.2977 -86.6589 38 38 48 0.471977 -0.0737899 0.878517 
-33.8627 63.3786 -85.7759 113 107 119 0.409574 0.0862982 0.908186 
-37.1039 66.4214 -83.4308 92 98 89 0.755246 0.205415 0.622421 
-34.7535 68.7961 -85.8382 126 115 117 0.463144 0.109058 0.879548 
-33.1061 65.0814 -86.5715 123 124 132 0.429931 0.075547 0.899696 
-35.7435 67.9786 -84.9423 142 142 127 0.154421 0.793095 0.589199 
-33.0022 70.6039 -87.09 89 86 97 0.351669 0.0509855 0.934735 
-32.9354 64.9829 -86.6593 61 61 70 0.436071 0.0872142 0.895676 
-38.7366 65.6749 -83.6656 90 83 95 0.658792 -0.13656 0.739828 
-33.7487 68.0106 -80.0887 72 91 72 0.488605 0.243537 0.837828 
-35.531 68.9221 -85.359 142 127 131 0.323266 0.375356 0.868681 
-37.3122 63.566 -84.1627 91 94 96 0.163195 0.336153 0.92756 
-38.2694 63.2353 -83.6909 74 64 78 0.576712 -0.128322 0.806807 
-34.1811 65.6459 -86.0683 77 74 84 0.476577 -0.0339442 0.878477 
-34.124 68.6961 -86.1863 114 106 107 0.410854 0.100984 0.906091 
-32.8334 64.5823 -86.6445 81 82 90 0.423371 0.0957791 0.900879 
-33.5654 65.2903 -86.3794 33 34 46 0.436744 0.0962791 0.894419 
-38.6472 66.655 -83.9239 64 63 67 0.391976 0.114961 0.912764 
-38.6953 65.226 -83.5358 93 87 99 0.333078 0.285707 0.898571 
-34.9861 67.5163 -79.6649 75 95 77 0.465314 0.112415 0.877978 
-38.2695 66.2001 -83.7715 104 110 105 0.263397 0.469801 0.842561 
-39.2431 67.1817 -83.6064 89 83 96 0.471484 -0.0942967 0.876819 
-34.4147 65.808 -85.7092 56 60 59 0.589702 0.0436295 0.806442 
-35.0647 67.3842 -85.3853 73 85 71 0.593365 -0.0236234 0.804587 
-34.6261 64.6016 -85.6161 143 146 151 0.327441 0.0449429 0.943802 
-37.1162 64.941 -84.4513 102 97 106 0.472707 -0.291737 0.831527 
-38.3267 64.4106 -83.6822 105 100 109 0.406808 0.077552 0.910216 
-39.5333 69.7646 -83.6248 63 56 68 0.690569 0.0953015 0.71696 
-39.0096 69.8544 -83.7739 93 88 98 0.270796 0.293966 0.916653 
-37.0226 66.4111 -84.2195 123 127 115 0.102295 0.537411 0.837093 
-33.7167 68.0809 -80.0607 81 100 81 0.402697 0.0718617 0.912508 
-32.0649 63.845 -86.9568 77 78 86 0.517439 0.0898035 0.850995 
-33.9736 68.8823 -86.3687 131 122 126 0.387039 -0.144964 0.910597 
-35.1214 68.7021 -85.5698 113 98 102 0.35098 0.625234 0.697062 
-37.5865 68.1098 -84.4973 185 182 188 0.345974 0.034726 0.937601 
-37.7085 68.0631 -84.4126 150 146 153 0.328945 0.00875518 0.944309 
-32.0956 65.1145 -87.1349 110 110 122 0.480639 0.128459 0.867459 
-34.238 71.2633 -86.3096 102 99 109 0.481672 0.0918142 0.871529 
-36.3041 69.1989 -85.0498 159 150 156 0.303393 0.021225 0.952629 
-35.451 65.9513 -85.3601 95 97 99 0.442069 0.0757439 0.893777 
-36.9161 66.0715 -84.347 84 89 87 0.560553 -0.213471 0.800132 
-37.6721 68.5036 -84.4982 97 92 101 0.306922 -0.0686366 0.949256 
-39.4816 67.8204 -83.4691 94 86 100 0.45402 0.0254465 0.890628 
-38.0477 62.9675 -83.7571 102 95 108 0.413458 0.0750502 0.907425 
-36.748 63.4298 -84.3616 152 150 156 0.208789 0.264098 0.941626 
-39.0734 66.1795 -83.4876 113 106 118 0.448043 0.0935168 0.889107 
-35.0489 68.5379 -85.6531 131 133 123 0.618853 0.21559 0.755342 
-35.9564 64.8155 -84.9873 100 94 106 0.381671 -0.0462231 0.923142 
-33.9019 65.314 -86.2094 84 85 94 0.485248 0.0508617 0.872896 
-36.2703 67.0123 -80.8642 55 74 55 0.478891 0.112932 0.87058 
-37.7135 64.4885 -84.1304 139 134 146 0.451155 0.0997881 0.886849 
-33.3418 71.2367 -86.7787 129 127 135 0.437047 -0.0901843 0.894906 
-35.9518 67.8145 -85.187 138 134 124 0.281621 0.587107 0.758943 
-34.1778 66.8899 -80.1923 97 116 95 0.396499 0.083115 0.914265 
-34.9444 70.5104 -86.0032 101 97 104 0.279318 -0.0335182 0.959613 
-34.9774 70.236 -85.9919 101 94 102 0.440405 -0.00130684 0.897798 
-34.1412 64.8182 -86.0523 104 103 114 0.494332 0.129019 0.859645 
-35.6287 68.2046 -85.3147 156 144 143 0.322765 0.0501508 0.945149 
-34.4953 66.3832 -85.1515 72 80 69 0.575499 -0.612628 0.541745 
-37.7397 66.0441 -84.0516 88 89 91 0.440342 0.167127 0.882138 
-34.058 68.6706 -80.9234 101 116 99 -0.170824 0.880403 0.442391 
-38.3214 68.1017 -84.0788 77 72 82 0.388431 -0.0573971 0.919688 
-38.5445 66.0804 -83.7213 101 100 105 0.453104 0.0762101 0.888194 
-38.5899 66.7127 -83.5499 92 90 95 0.0826644 0.639561 0.764283 
-33.0357 69.3569 -86.9987 95 91 100 0.406617 0.0978638 0.908342 
-36.8502 67.3359 -84.8082 89 86 82 0.326635 0.407133 0.852967 
-38.5475 67.2148 -83.7157 100 103 104 0.453725 0.090745 0.886509 
-35.1975 71.6708 -85.9473 80 78 86 0.308109 0.142517 0.940615 
-33.5703 67.1598 -86.2634 62 58 67 0.497261 -0.0983123 0.862013 
-33.7252 66.1486 -86.3102 77 78 85 0.478632 0.0229204 0.877716 
-38.6561 66.25 -83.821 74 68 80 0.478891 0.112932 0.87058 
-38.1919 67.6355 -84.217 90 85 94 0.370345 0.246405 0.895616 
-33.5265 67.6772 -80.0322 102 121 103 0.214151 0.5088 0.833824 
-35.2075 64.5557 -85.3536 127 132 132 0.309319 0.0660053 0.948665 
-36.4947 66.3702 -80.3114 90 112 87 0.418918 -0.577876 0.700405 
-34.2404 64.6721 -81.5659 99 107 97 0.726874 -0.339858 0.596784 
-35.947 65.8876 -84.4131 68 74 66 0.610227 -0.198285 0.767011 
-37.9966 68.0582 -83.8572 85 81 89 0.151314 0.594768 0.789528 
-36.0651 69.1446 -85.2943 118 115 112 0.291492 -0.0210866 0.956341 
-35.1081 67.9441 -80.3637 91 110 89 -0.1277 0.873815 0.469191 
-34.4099 66.4818 -80.0096 87 105 87 0.496764 0.119511 0.859618 
-39.3439 67.1091 -83.466 83 75 89 0.444275 0.0335555 0.895262 
-33.4208 65.9269 -81.4908 81 92 80 0.754666 0.0952491 0.649159 
-39.3617 67.4933 -83.4589 98 90 104 0.43743 0.0814145 0.895559 
-36.1193 65.8822 -84.9515 55 56 59 0.275834 0.00850591 0.961168 
-36.094 65.4928 -84.9342 52 60 51 0.423012 -0.0278472 0.905696 
-38.1316 64.3762 -83.8748 96 88 100 0.507107 -0.0569627 0.859998 
-38.2316 66.2717 -84.0153 95 93 100 0.437577 0.236081 0.867636 
-35.4627 65.5546 -85.1027 91 104 92 0.411769 -0.103982 0.905337 
-36.3949 66.6205 -84.5617 72 78 63 0.146282 0.459124 0.876246 
-38.9848 67.4224 -83.6032 69 62 74 0.435095 0.0842565 0.896434 
-33.4356 66.9287 -86.4864 51 50 60 0.566122 -0.0405372 0.823324 
-36.3506 67.5843 -84.8869 137 137 127 0.316224 0.573056 0.756048 
-35.0214 67.7889 -85.112 71 66 62 0.0631354 0.398962 0.914791 
-34.4583 66.6169 -80.0435 94 111 95 0.429936 0.0987878 0.897439 
-33.3503 65.9348 -81.5658 98 109 102 0.243273 -0.34233 0.90754 
-39.2142 67.6018 -83.5763 109 110 113 0.446987 0.0587781 0.892607 
-34.6524 69.0837 -86.0135 122 109 115 0.488383 0.0920142 0.867765 
-38.0306 62.952 -83.8129 101 91 106 0.498192 0.11055 0.859991 
-37.4387 64.2034 -84.216 86 81 93 0.469946 -0.00931904 0.882646 
-36.6407 66.5199 -80.6147 93 111 94 0.279553 -0.678915 0.678915 
-33.5203 66.9071 -80.6854 73 85 75 0.605937 -0.110037 0.787865 
-38.9298 68.8019 -83.7559 81 73 87 0.324307 0.29469 0.898879 
-35.8316 70.3101 -85.5456 118 111 120 0.274076 0.0334844 0.961125 
-37.6548 65.7576 -83.9398 123 128 127 0.475318 -0.0679025 0.87719 
-38.515 64.591 -83.5985 124 115 129 0.518322 -0.0660194 0.852633 
-34.6438 63.9696 -85.5969 101 97 110 0.287995 -0.0787788 0.954386 
-37.9858 65.1536 -83.9511 112 105 117 0.441073 0.0728251 0.894512 
-36.6932 66.7456 -80.672 80 101 74 0.474467 -0.645476 0.598533 
-35.0074 71.0086 -85.9535 107 110 115 0.278254 0.103202 0.954947 
-36.9378 65.7316 -84.1705 83 81 81 0.529159 0.060355 0.846373 
-36.6238 67.8779 -84.9385 195 190 190 0.432549 0.323241 0.841675 
-37.8306 69.8818 -84.4669 118 112 125 0.532509 0.263912 0.804229 
-35.4008 66.9458 -84.6937 82 94 77 0.472837 0.232618 0.849891 
-34.31 68.4038 -85.8932 153 149 146 0.433888 0.108121 0.894456 
-34.3348 65.2477 -85.9777 47 48 63 0.492818 0.0453008 0.868952 
-37.1006 67.2084 -81.8426 110 130 103 0.282898 0.650506 0.704848 
-35.5601 65.9449 -85.2906 54 58 60 0.307442 -0.1395 0.941286 
-34.3021 68.1957 -85.7989 135 127 125 0.173922 0.321408 0.930832 
-33.3453 71.783 -86.8544 100 95 105 0.356465 0.0565608 0.932595 
-38.2973 64.0461 -83.6692 90 83 94 0.473792 0.0913842 0.875882 
-33.6271 69.2972 -86.6357 100 93 102 0.537932 -0.0373372 0.842161 
-39.1741 66.6278 -83.5755 94 86 99 0.444432 0.0995415 0.890265 
-31.2071 65.0246 -83.5536 82 105 81 0.26137 0.211585 0.941763 
-34.5539 67.6602 -79.6049 88 108 89 0.576989 0.0319777 0.816126 
-34.4074 67.1983 -85.1932 87 105 83 0.573344 0.437071 0.692998 
-34.9632 63.6453 -85.3925 108 109 114 0.406447 -0.0634651 0.911467 
-34.8901 65.8469 -80.4634 93 102 89 0.536254 -0.65729 0.52953 
-32.4744 66.8434 -87.1211 47 46 59 0.283766 -0.0868142 0.954956 
-34.2634 68.8589 -81.1652 105 127 99 0.0403225 0.552001 0.832868 
-33.0278 67.7807 -86.6811 61 56 68 0.489196 0.144568 0.860109 
-38.7892 68.8531 -83.8822 74 66 79 0.350053 0.230948 0.907814 
-33.9696 67.4018 -80.0456 77 94 79 0.591585 -0.138583 0.794243 
-34.0967 68.742 -86.3388 136 122 127 0.475881 0.0974356 0.874096 
-32.7091 67.9268 -86.9273 188 184 197 0.492989 0.135245 0.859459 
-35.5433 70.2309 -85.6737 128 119 129 0.24567 0.0768506 0.966302 
-34.2495 65.2739 -85.8754 101 103 107 0.529585 0.0990281 0.842457 
-37.1624 69.2033 -84.7514 201 196 205 0.361334 0.0760001 0.929334 
-32.9616 68.0412 -86.8197 125 120 132 0.47607 0.222166 0.850881 
-31.9996 63.7848 -87.0621 72 70 80 0.319802 -0.0855439 0.943615 
-34.2145 69.5483 -86.2965 113 104 112 0.440555 0.164299 0.882563 
-33.3871 67.7153 -80.1521 99 118 99 0.192439 0.543982 0.816731 
-33.3031 68.0518 -86.5459 96 87 97 0.399163 0.337037 0.852687 
-36.3572 63.9092 -84.4698 102 108 105 0.378184 -0.0654807 0.923412 
-36.2501 67.0035 -80.7572 56 75 49 0.632729 -0.354786 0.688317 
-37.9832 65.5571 -83.9041 95 88 98 0.444306 0.102316 0.890013 
-33.4802 68.8835 -86.7126 95 90 98 0.395264 0.0688002 0.915987 
-33.916 66.8932 -80.2729 132 152 130 0.101306 0.653348 0.750249 
-36.8735 63.3903 -84.2014 141 143 144 0.191082 0.338286 0.921439 
-39.0781 68.3415 -83.8023 74 67 80 0.463598 0.0972287 0.880695 
-33.217 69.1413 -86.8308 103 94 103 0.31751 0.0395294 0.94743 
-34.62 67.7644 -79.7319 124 145 124 0.507569 0.141885 0.849849 
-33.8426 67.5719 -86.1067 77 71 73 0.249068 0.161162 0.954983 
-38.3683 70.1581 -84.2237 107 99 113 0.377253 0.0653195 0.923804 
-35.6314 69.2888 -85.5713 141 134 134 0.431354 0.0929285 0.897384 
-31.6507 64.134 -87.1747 107 115 112 0.271317 0.376247 0.885904 
-35.9943 66.0105 -84.9244 83 85 83 0.597101 0.0762563 0.798533 
-33.9836 65.7024 -86.1411 55 54 64 0.554739 -0.0318179 0.831416 
-35.9836 69.5802 -85.3184 98 87 94 0.315874 0.0473171 0.947621 
-35.1485 68.2455 -85.272 93 81 81 -0.0255099 0.249025 0.968161 
-34.0204 66.8576 -85.877 69 77 68 0.717284 -0.0589351 0.694284 
-31.8379 66.1363 -87.165 88 88 99 0.492235 0.122698 0.861772 
-38.5628 66.5354 -83.8349 121 117 124 0.392477 0.192618 0.899366 
-37.0316 70.8367 -84.9019 140 133 145 0.400821 0.0492704 0.914831 
-37.0188 69.5481 -84.7473 219 213 223 0.464464 0.325912 0.82344 
-35.7668 69.676 -85.5565 166 159 162 0.332101 0.0478123 0.942031 
-36.1055 68.8539 -85.3012 125 125 116 0.30106 0.0576497 0.951861 
-33.5684 63.4458 -86.1241 113 114 118 0.361406 -0.073348 0.929519 
-33.8321 65.2058 -80.33 100 111 97 0.665582 -0.445389 0.598857 
-34.232 68.1401 -79.8388 69 85 67 0.428564 0.0813031 0.899846 
-33.7863 66.5706 -86.2923 53 52 58 0.405061 0.171538 0.898053 
-38.5899 68.3188 -83.7087 84 83 90 0.427068 0.0898364 0.899746 
-32.336 64.9799 -86.9026 63 63 74 0.331843 0.144579 0.932189 
-33.8021 64.3713 -86.027 47 44 57 0.430497 0.0872069 0.898369 
-32.7185 65.6267 -86.7196 103 103 114 0.413371 0.143472 0.899189 
-33.9894 67.3576 -86.0939 90 93 94 0.612661 0.174829 0.770767 
-33.5388 63.4508 -86.1285 106 106 112 0.369381 -0.0680088 0.926786 
-34.6251 68.0802 -79.8515 104 126 103 0.523654 0.146033 0.839322 
-34.5937 67.5992 -85.5813 70 73 62 0.403197 0.127843 0.906139 
-37.6445 70.7261 -84.6526 108 105 112 0.47003 -0.0174085 0.882479 
-34.7025 63.2258 -85.517 174 175 179 0.447656 -0.0199253 0.893984 
-35.6487 65.1371 -85.2607 50 48 62 0.276757 0.0233706 0.960656 
-34.6781 70.5506 -86.0557 112 105 116 0.431766 0.017165 0.901822 
-38.4837 68.9642 -84.0491 114 106 119 0.326651 -0.0503534 0.943803 
-35.3155 69.9338 -85.6911 151 141 150 0.428466 0.08404 0.899641 
-33.0597 66.6697 -80.6862 82 94 83 0.621076 0.0466868 0.782358 
-32.7991 64.8238 -86.71 81 79 90 0.436175 0.0844656 0.895889 
-33.3266 71.4392 -86.8666 95 93 101 0.341605 0.332496 0.879064 
-35.8951 69.1669 -85.2318 128 115 120 0.22761 0.179692 0.957029 
-36.1734 64.5036 -84.8503 176 183 179 0.366766 -0.15317 0.917617 
-36.8406 68.5998 -84.9465 115 124 116 0.299527 0.190861 0.934802 
-33.2252 67.7365 -80.7501 74 93 77 0.431779 0.0841487 0.898045 
-37.6797 64.7064 -84.1065 88 83 94 0.489617 -0.0537889 0.870277 
-35.8226 63.974 -85.0499 160 166 167 0.406892 0.0748464 0.910405 
-36.4224 66.7805 -80.7304 76 97 71 0.613793 -0.205628 0.762217 
-36.7918 66.8588 -80.8038 66 82 67 0.279553 -0.678915 0.678915 
-34.1866 64.7385 -85.8841 59 60 69 0.487159 0.098 0.867797 
-38.9905 68.9716 -83.756 93 85 99 0.371195 0.122812 0.920398 
-32.9931 67.487 -86.7244 83 79 92 0.256473 0.0206637 0.966331 
-38.7817 65.6879 -83.6091 107 100 112 0.363508 0.259649 0.894676 
-37.2085 65.4552 -84.3025 128 124 124 0.53413 -0.090215 0.840575 
-38.0227 68.575 -84.2623 87 83 92 0.28098 0.0284693 0.959291 
-34.7202 66.8083 -79.9243 89 108 91 0.537641 0.118019 0.834873 
-37.5465 65.4105 -83.9849 109 113 112 0.491739 -0.0921124 0.865857 
-37.7824 63.5234 -83.9442 105 96 110 0.415362 0.00129396 0.909655 
-36.2619 63.2356 -84.7435 154 153 160 0.447048 0.0905237 0.889918 
-37.4091 65.3867 -84.2598 133 126 130 0.39943 0.071762 0.913951 
-34.9289 70.8377 -85.8831 128 123 133 0.366846 0.0595959 0.928371 
-35.1099 69.472 -85.8408 141 130 137 0.203438 0.120041 0.971701 
-36.2109 67.3727 -84.9039 143 156 130 0.309672 0.572814 0.758938 
-37.0372 64.7507 -84.3262 96 105 98 0.349489 -0.136757 0.926906 
-32.3183 67.5112 -87.1073 78 74 89 0.253603 0.020628 0.967088 
-37.153 67.4918 -84.7209 94 104 94 0.397609 0.0660436 0.915175 
-32.9308 69.1678 -86.9619 60 56 65 0.219738 0.227927 0.948559 
-33.7643 67.2824 -80.2107 91 110 89 0.330146 0.184039 0.925815 
-38.8223 68.9357 -83.8735 89 86 96 0.352087 0.189585 0.916566 
-35.5924 70.0721 -85.6126 112 103 113 0.291867 -0.0363267 0.955769 
-39.6279 70.2207 -83.6169 78 71 85 0.241315 0.0871766 0.966523 
-32.5132 66.1242 -86.8359 80 79 92 0.550024 0.134188 0.824298 
-32.008 64.9415 -86.9754 102 104 113 0.304127 0.0577457 0.95088 
-37.8736 65.1532 -83.9234 115 116 121 0.447159 0.0877602 0.890139 
-34.1057 65.8271 -80.147 84 95 81 0.513436 -0.349265 0.783835 
-34.7521 70.4929 -86.0331 89 82 92 0.454057 -0.0173101 0.890804 
-36.9402 66.5615 -80.8902 106 123 107 0.329708 -0.661039 0.674033 
-34.4658 67.1444 -79.6872 135 155 134 0.518699 -0.449097 0.727504 
-32.5459 68.3981 -86.9856 135 130 142 0.459144 0.224303 0.859578 
-35.9761 71.1893 -85.5048 86 79 90 0.367651 0.00636075 0.929942 
-33.8491 66.8117 -80.1624 94 114 92 0.112266 0.564246 0.817938 
-33.6734 68.1873 -80.2231 84 103 87 0.601513 0.171212 0.7803 
-34.2188 65.2077 -85.9796 89 85 96 0.404035 0.0493376 0.913412 
-33.1129 67.7363 -86.5515 55 54 63 0.541658 0.152851 0.826585 
-38.4409 66.2268 -83.8632 64 61 71 0.377545 0.0738968 0.923038 
-33.8053 63.8012 -85.9983 149 152 157 0.341453 0.0480371 0.938671 
-39.4335 67.8097 -83.5096 85 77 91 0.413458 0.0750502 0.907425 
-34.6389 65.2065 -80.933 107 118 107 -0.219556 -0.815274 0.535839 
-37.0236 63.3204 -84.1446 129 130 134 0.191582 0.33917 0.92101 
-39.1669 67.9143 -83.6169 85 77 91 0.413372 0.0777631 0.907236 
-34.813 71.1609 -86.0556 71 67 76 0.41995 0.0779711 0.904192 
-36.3817 66.302 -80.5029 75 93 75 0.35137 -0.268346 0.896956 
-37.6166 62.6882 -83.9768 166 160 171 0.376219 0.333222 0.864536 
-34.4315 70.0944 -86.2525 93 89 97 0.480885 -0.0564936 0.874962 
-39.0107 67.4533 -83.6289 60 52 65 0.435095 0.0842565 0.896434 
-34.3781 69.4656 -86.145 101 97 101 0.511858 -0.0836555 0.854987 
-36.2377 67.7547 -80.9551 113 131 113 0.630131 -0.319115 0.707885 
-38.3008 68.8578 -84.1894 112 106 118 0.43382 0.0611972 0.898919 
-37.685 68.4452 -84.4721 83 79 88 0.262446 0.38842 0.883319 
-36.2276 62.8112 -84.6503 106 100 113 0.403197 -0.127843 0.906139 
-36.84 65.4724 -84.0303 123 121 118 0.519159 -0.0231646 0.854364 
-37.7477 66.4098 -83.5139 76 82 76 0.563728 -0.396089 0.724793 
-34.5914 64.9393 -85.7244 72 68 81 0.442428 -0.117321 0.889097 
-39.1093 67.2245 -83.5723 87 79 92 0.424597 0.113506 0.898239 
-38.231 65.8245 -83.6559 109 113 112 0.418926 0.172499 0.891485 
-36.2296 68.3178 -85.1382 180 172 172 0.33816 0.471519 0.814443 
-38.8964 67.1088 -83.6602 91 84 96 0.435095 0.0842565 0.896434 
-34.5274 63.2657 -85.607 175 174 180 0.345332 0.0534288 0.936958 
-37.5137 66.2256 -84.19 112 111 108 0.427862 0.00130049 0.903843 
-35.6741 67.8391 -84.9574 136 139 119 -0.004074 0.558138 0.829738 
-33.946 68.3902 -86.0576 135 121 126 0.231493 0.201711 0.951695 
-37.7529 63.6493 -83.9954 98 94 103 0.237293 0.0816087 0.968004 
-33.4653 67.5788 -80.4755 69 87 67 0.49974 -0.610794 0.614159 
-39.1759 67.8722 -83.6137 99 91 104 0.435095 0.0842565 0.896434 
-35.7371 65.1674 -84.8488 84 78 86 0.408354 -0.134234 0.9029 
-37.6647 66.5347 -84.2085 66 70 65 0.470326 0.097455 0.877095 
