ply
format ascii 1.0
comment Created by CloudCompare v2.11 alpha (Anoia)
comment Created 15/10/2019 14:56
obj_info Generated by CloudCompare!
element vertex 736
property float x
property float y
property float z
property uchar red
property uchar green
property uchar blue
property float nx
property float ny
property float nz
end_header
-32.7678 43.557 -84.6853 87 77 91 0.524724 0.149288 0.83808 
-28.2215 42.1404 -84.6504 41 81 36 0.360475 0.420292 0.832714 
-26.6161 43.0743 -87.6828 134 141 123 0.445417 0.102572 0.889428 
-28.9952 40.8962 -84.1657 132 172 124 0.504938 -0.200468 0.839554 
-28.0914 42.1324 -84.7907 126 164 119 0.581328 0.160729 0.797636 
-30.6951 43.3995 -85.5376 86 89 84 0.238907 0.425225 0.872988 
-31.0985 42.4336 -85.3799 120 124 118 0.381255 0.144905 0.913043 
-26.228 38.9584 -87.469 161 157 163 0.233827 0.406591 0.883181 
-26.2407 38.8139 -87.3919 132 129 131 0.233827 0.406591 0.883181 
-28.152 42.5824 -84.9002 93 132 79 0.469603 -0.367027 0.802972 
-25.4685 42.6495 -88.3454 147 140 149 0.361334 0.0760001 0.929334 
-26.9457 40.5111 -87.3136 134 132 141 0.387153 0.356056 0.850492 
-26.0061 39.3374 -87.778 126 121 130 0.231372 0.41647 0.879215 
-30.4529 43.0088 -85.6987 134 159 119 0.359552 0.167791 0.917915 
-27.1991 39.354 -87.0148 164 157 168 0.359693 0.261999 0.895532 
-26.6406 43.4346 -87.4462 140 138 137 0.424011 0.122555 0.897326 
-27.6709 43.8699 -86.7221 137 145 123 0.0731826 0.604115 0.793529 
-29.6283 42.2496 -83.9751 112 153 97 -0.0139096 -0.0866674 0.99614 
-27.053 42.4035 -86.775 112 141 100 0.712222 0.20327 0.671878 
-29.9541 44.3382 -86.2927 117 117 118 0.0915625 0.614777 0.783368 
-26.9496 41.8637 -86.3955 79 106 71 0.763222 -0.0266077 0.645588 
-27.1273 44.0747 -87.6605 129 129 134 0.372386 0.0569843 0.926327 
-30.0771 43.9557 -86.1253 85 86 85 0.16324 0.558612 0.813207 
-30.1545 44.1856 -86.1666 111 109 113 0.178252 0.464045 0.867691 
-28.8135 41.4941 -83.8796 108 146 96 0.345874 -0.109866 0.931826 
-30.2878 43.8671 -85.9662 154 154 155 0.186754 0.497512 0.847115 
-30.2634 44.2511 -86.0856 97 93 99 0.306278 0.288693 0.907111 
-26.7621 41.4094 -87.386 54 58 56 0.595236 -0.116108 0.795118 
-26.2323 42.955 -87.8315 69 69 69 0.465163 -0.115224 0.877694 
-25.8872 41.2685 -87.9214 52 49 59 0.586961 0.157624 0.794123 
-27.153 40.2544 -87.2473 112 108 118 0.253241 0.311124 0.916008 
-29.1496 41.8031 -83.934 103 142 92 0.36538 0.0789649 0.927503 
-30.2248 43.6888 -85.9741 163 166 160 0.14776 0.583578 0.798501 
-29.8624 38.9265 -85.5436 117 112 116 0.394704 0.0773131 0.91555 
-28.3565 44.9445 -87.1485 80 75 85 0.296904 0.0442197 0.953883 
-27.5298 42.7608 -86.3466 89 109 77 0.771516 0.245696 0.586853 
-28.3257 42.9088 -85.1597 79 114 64 0.488501 0.582508 0.649655 
-27.418 40.756 -86.9693 38 39 49 0.447756 -0.123666 0.885563 
-29.6474 38.7495 -85.6392 75 69 79 0.565064 -0.276992 0.77716 
-29.5034 38.7759 -85.7406 53 46 56 0.539637 -0.278472 0.794509 
-27.4978 41.9201 -85.8792 88 115 86 0.211283 0.421088 0.882068 
-29.7124 44.4358 -86.3824 109 112 107 0.179827 0.551572 0.814513 
-30.6886 40.1199 -85.3128 95 94 94 0.239219 0.073895 0.96815 
-27.8913 40.7099 -86.7069 38 40 47 0.420553 -0.75765 0.4991 
-27.158 41.2562 -87.1765 67 73 72 0.725176 -0.155936 0.670674 
-29.06 41.1509 -84.066 72 111 62 0.398107 -0.609549 0.685537 
-30.2385 41.0833 -84.6027 106 141 96 0.223221 -0.811293 0.540349 
-29.2266 42.3457 -84.1453 97 142 85 0.488082 0.103877 0.866594 
-30.4464 40.6429 -84.4864 122 150 113 0.240792 0.498455 0.832803 
-27.9155 44.5273 -87.2259 137 139 141 0.35629 0.244858 0.901722 
-27.8084 42.8164 -85.6293 50 74 38 0.754654 0.274853 0.595779 
-31.777 43.3266 -85.0665 88 80 92 0.354281 0.0191849 0.934942 
-28.1504 42.9287 -85.271 99 134 85 0.503288 0.135669 0.853402 
-30.1234 42.2572 -83.9547 101 140 88 0.188388 -0.0269126 0.981726 
-30.3618 43.6495 -85.751 100 107 98 0.228879 0.426343 0.875126 
-30.6537 42.404 -84.8961 100 135 91 0.337037 0.399163 0.852687 
-26.7605 44.7481 -87.7194 107 105 114 0.218279 -0.0153385 0.975766 
-29.0015 44.7032 -86.732 131 130 135 0.30805 0.258877 0.915471 
-31.2769 43.7169 -85.3467 149 141 152 0.275914 0.310951 0.909495 
-32.012 43.1161 -84.9349 117 109 121 0.251112 0.270974 0.929256 
-31.3022 41.158 -84.7653 128 159 120 0.230072 -0.402255 0.886148 
-26.0958 42.8043 -87.9996 138 130 133 0.551215 -0.00952718 0.834309 
-27.7069 42.6829 -85.3639 58 84 49 0.537559 0.332163 0.775047 
-28.8115 42.1766 -84.0378 131 172 119 0.198865 0.633593 0.747671 
-27.2094 40.2374 -87.1034 128 125 135 0.225335 0.38734 0.893975 
-29.0671 38.8194 -86.0082 98 95 98 0.444843 0.114388 0.888274 
-26.6091 44.7982 -87.9634 101 99 108 0.217291 0.0105709 0.976049 
-29.0656 40.0973 -86.1673 65 68 66 0.542401 -0.559298 0.626887 
-32.0334 43.0206 -84.8671 88 80 92 0.354003 0.0483326 0.933994 
-29.169 44.8266 -86.552 120 118 124 0.299039 0.406387 0.86338 
-27.0184 40.3674 -87.1847 142 142 146 0.320665 0.314699 0.893386 
-27.99 42.8861 -85.41 100 130 85 0.244235 0.453579 0.857097 
-26.6323 40.8545 -87.4438 147 149 147 0.320495 0.288002 0.902407 
-30.0939 38.5936 -85.3063 168 158 170 0.665568 0.0439928 0.745039 
-26.9479 41.912 -87.009 75 102 68 0.54593 -0.623678 0.559451 
-26.6163 40.6449 -87.4015 140 135 144 0.55088 0.11192 0.827046 
-28.3688 43.1954 -85.2543 153 194 134 0.576229 -0.379228 0.72398 
-29.8003 44.348 -86.3331 131 135 129 0.0469515 0.675817 0.735573 
-31.1754 43.9004 -85.4438 68 66 73 0.540711 0.139966 0.829483 
-28.4067 40.8191 -84.3475 47 79 44 0.280936 -0.470296 0.836599 
-28.719 40.093 -86.2896 34 31 35 0.600373 -0.270881 0.752447 
-25.4979 42.3236 -88.2701 53 52 63 0.305476 -0.0904628 0.947893 
-30.6441 40.5175 -84.6696 112 137 104 0.568439 -0.224588 0.791478 
-26.4658 41.5739 -87.6454 142 158 134 0.426336 -0.153596 0.891429 
-32.09 41.3287 -84.7457 115 112 116 0.499058 0.122956 0.857801 
-27.0847 41.1772 -86.2872 40 52 46 0.612844 -0.032255 0.789545 
-28.4922 42.1466 -84.2663 130 169 118 0.523171 -0.411649 0.746216 
-26.7348 38.9573 -87.2911 115 112 121 0.205067 0.471505 0.857689 
-28.6426 44.0948 -86.4868 116 129 107 0.146233 0.697996 0.701011 
-28.644 42.6866 -84.5627 72 110 57 0.258559 0.718571 0.645603 
-26.6246 44.7354 -87.8954 143 141 150 0.53468 -0.282323 0.796499 
-30.3467 43.0747 -85.7621 148 171 132 0.564985 0.454988 0.688315 
-27.6448 38.5976 -86.8407 110 103 115 0.359172 0.206271 0.910191 
-29.8751 39.0346 -85.5616 125 119 126 0.47005 0.0282838 0.882186 
-26.105 44.3791 -88.027 99 97 107 0.245031 -0.510097 0.824476 
-31.7168 41.1797 -84.6514 117 128 118 0.47189 -0.166117 0.865867 
-26.8122 42.7042 -87.2938 114 132 97 0.123509 0.438671 0.89012 
-26.5681 42.9453 -87.5392 131 134 117 0.042145 0.463595 0.885044 
-30.9405 40.386 -85.2922 99 102 99 0.310622 0.122366 0.942624 
-31.9801 43.3697 -84.9277 90 83 93 0.261362 0.174693 0.949301 
-30.5303 38.759 -85.1622 87 78 90 0.32649 0.0637371 0.943049 
-31.1731 40.4802 -85.1009 74 81 75 0.51174 -0.110997 0.85194 
-26.2153 41.3447 -87.6553 95 101 92 0.27437 0.277243 0.920792 
-27.6379 42.4852 -85.6751 54 78 46 0.697884 0.387713 0.602193 
-30.7336 43.7152 -85.563 136 132 138 0.276613 0.363335 0.889648 
-29.5648 43.8561 -85.8919 138 165 122 -0.0264008 0.804531 0.593324 
-26.3965 40.4936 -87.6022 117 113 119 0.418568 0.101513 0.902494 
-25.6616 40.5515 -88.0461 77 70 81 0.0403844 0.558418 0.828576 
-28.2267 39.0647 -86.6135 117 114 126 0.347265 0.233932 0.90812 
-27.7259 42.098 -85.2791 65 95 62 0.576982 -0.234836 0.782269 
-28.2694 42.8079 -84.8245 92 129 79 0.615701 0.264324 0.742324 
-26.629 41.021 -87.2109 119 119 123 0.738047 -0.247065 0.62789 
-31.6914 39.8952 -84.8003 135 129 137 0.441361 0.0932845 0.892468 
-31.3607 44.4679 -85.4046 63 58 70 0.342112 0.133273 0.93016 
-28.2383 40.2446 -85.0811 32 44 34 0.352185 -0.466924 0.81114 
-29.1369 39.4869 -86.2479 147 148 147 0.311092 0.338143 0.88819 
-28.6379 42.4397 -84.8254 103 142 90 0.426536 0.192015 0.883854 
-28.3332 40.5669 -84.8659 69 95 65 0.632167 -0.544507 0.55125 
-26.1182 39.0636 -87.5424 142 142 147 0.345198 0.0295151 0.938066 
-29.619 39.6254 -85.7928 143 143 143 0.511436 0.12968 0.84948 
-27.8672 42.7313 -85.0739 75 109 64 0.549082 -0.373115 0.74786 
-29.6258 39.3612 -85.7609 52 49 52 0.440143 0.025265 0.897572 
-28.0344 42.0994 -84.7742 107 144 102 0.151822 0.508532 0.847553 
-29.7262 40.285 -85.6375 81 90 67 0.611348 -0.260652 0.747204 
-27.0631 44.4026 -87.6443 85 84 91 0.262963 0.309453 0.913832 
-31.1376 41.6097 -84.5875 115 155 106 0.219556 0.535839 0.815274 
-26.979 39.0106 -87.1346 110 107 118 0.333754 -0.21343 0.918181 
-27.4372 43.8079 -87.4244 139 143 130 0.271134 0.19406 0.942776 
-27.2601 39.6916 -87.0724 103 99 110 0.376787 0.0850808 0.922384 
-31.4631 41.7511 -84.8175 112 153 100 0.378731 0.0597997 0.923573 
-28.0623 42.238 -84.888 96 134 89 0.18178 0.468491 0.864565 
-28.2139 42.1889 -84.7946 95 135 89 0.334885 0.222778 0.915545 
-29.5282 40.6688 -84.4298 96 125 91 0.0882381 -0.919034 0.384175 
-32.2878 42.7452 -84.807 91 83 95 0.354995 0.202649 0.91264 
-27.2983 42.1604 -86.3398 123 149 116 0.708229 0.210134 0.673985 
-26.2778 45.0513 -88.0371 157 153 163 0.199215 0.00115153 0.979955 
-25.6632 44.1915 -87.9911 145 142 151 0.247871 -0.010777 0.968733 
-32.142 43.5846 -84.8072 84 75 87 0.647419 0.344094 0.680035 
-26.2856 43.4273 -87.9114 125 118 122 0.351749 0.0619183 0.934044 
-26.919 45.275 -87.8237 158 153 163 0.402165 0.0804329 0.912027 
-25.9097 41.4409 -87.8664 87 87 89 0.163698 0.494045 0.853887 
-27.973 40.5956 -85.0661 36 54 39 0.58713 -0.634235 0.503014 
-26.8865 38.8973 -87.2163 148 143 153 0.338506 -0.109239 0.934602 
-27.8477 42.3315 -85.7579 46 71 44 0.621235 0.0265246 0.783175 
-31.8458 43.3218 -85.0207 97 88 100 0.352432 0.0563367 0.93414 
-25.742 41.4736 -87.9906 144 141 147 0.340664 0.0453355 0.939092 
-27.8446 42.3919 -85.3811 78 105 70 0.635457 -0.318537 0.703369 
-32.3746 43.2642 -84.8688 78 69 81 0.462276 -0.0589848 0.884772 
-28.7828 44.7895 -86.8685 79 79 84 0.337494 0.0669735 0.938942 
-31.5075 41.2715 -84.5258 139 158 133 0.201209 0.418574 0.885613 
-25.7679 42.5171 -88.0775 102 99 105 0.334824 0.0920433 0.937774 
-25.9995 40.8858 -87.9444 105 102 107 0.315696 0.0579849 0.947087 
-28.0681 42.6702 -85.7256 42 66 33 0.651463 -0.300799 0.696503 
-27.6419 44.8111 -87.3094 99 95 104 0.646532 -0.00969106 0.762825 
-25.692 43.2302 -88.2133 114 110 118 0.335208 -0.0372453 0.941408 
-27.9199 42.9199 -85.9659 83 110 69 0.636413 -0.307734 0.707304 
-25.7567 40.7659 -88.0457 104 97 107 0.383115 0.0246752 0.923371 
-26.2219 44.7739 -88.025 151 145 155 0.472938 0.146975 0.868751 
-30.8928 41.4487 -84.358 127 165 118 0.0736279 0.63089 0.772371 
-30.1864 40.457 -84.1414 133 156 123 0.0467078 0.779878 0.624186 
-32.1924 43.8348 -84.9513 51 43 55 0.335126 0.0612876 0.940178 
-29.9653 39.8735 -85.5394 92 95 89 0.445331 -0.145561 0.883455 
-29.287 43.367 -85.2332 127 163 110 0.347729 0.0727191 0.934771 
-30.7355 40.3611 -85.0946 90 99 87 0.617078 -0.168294 0.768695 
-28.6985 39.3153 -86.3647 137 135 140 0.406726 0.0951324 0.908584 
-28.3081 41.0732 -84.2867 91 121 91 0.604866 -0.171303 0.777684 
-27.4394 41.8384 -85.809 55 78 53 0.502705 -0.0540096 0.862769 
-27.3666 41.375 -87.0325 59 64 63 0.558963 -0.381931 0.735995 
-29.0522 44.3072 -86.4075 139 160 127 0.548355 -0.465019 0.695028 
-29.7387 44.5635 -86.3196 81 83 80 0.493683 0.209853 0.843942 
-28.4412 43.8291 -86.9443 35 44 34 0.665213 -0.172802 0.726382 
-27.6502 40.9601 -85.3978 75 101 76 0.611785 -0.0437999 0.78981 
-27.4214 38.5231 -86.9007 91 87 99 0.337548 0.045265 0.940219 
-28.337 41.7114 -84.4139 55 91 52 0.696435 -0.0738424 0.71381 
-32.5245 43.2799 -84.6491 98 88 101 0.35641 0.0591825 0.932453 
-25.9439 39.8085 -87.6932 118 112 124 0.433146 0.138664 0.890594 
-31.2685 44.4801 -85.6132 86 79 91 0.283592 0.0159597 0.958812 
-28.6625 41.4574 -84.0106 106 144 97 0.380788 0.0740048 0.921696 
-28.1147 43.6538 -86.2464 83 90 78 0.344127 0.650743 0.676838 
-27.5868 40.3428 -86.3308 76 78 80 0.570882 -0.396492 0.718949 
-25.6536 41.1389 -88.0138 144 141 152 0.623917 0.0645432 0.778821 
-28.8416 41.0558 -83.8692 91 126 83 0.485909 0.104022 0.867797 
-27.9998 39.9753 -86.4475 46 43 51 0.424618 -0.493475 0.759066 
-27.0148 45.0443 -87.782 128 124 133 0.402165 0.0804329 0.912027 
-26.2959 42.1236 -87.5993 124 141 117 0.35969 -0.0703453 0.930416 
-26.4638 43.5212 -87.8918 127 125 129 0.391679 0.0408823 0.919193 
-28.2364 40.3857 -84.8545 61 81 60 0.356225 -0.444886 0.821693 
-28.4883 41.4997 -85.1952 81 118 80 0.511212 0.139155 0.848114 
-30.3685 40.7627 -84.0565 104 138 94 -0.352833 -0.227962 0.907492 
-28.1413 39.4237 -86.5973 131 133 136 0.38194 0.059886 0.922245 
-28.8528 44.1367 -86.2573 90 111 78 0.110679 0.650794 0.751144 
-25.5304 42.153 -87.8966 119 117 123 0.413833 0.0691983 0.907719 
-31.6504 40.0313 -84.4448 105 98 107 0.429568 0.104943 0.896916 
-26.7567 39.0691 -87.2261 137 132 141 0.376714 -0.197739 0.904979 
-31.2241 42.9681 -85.337 99 95 101 0.399536 0.118329 0.909048 
-29.4013 42.9067 -84.7275 100 129 82 -0.0148507 0.865392 0.500875 
-26.848 40.0873 -87.3795 130 125 133 0.349713 0.182644 0.918881 
-27.6 41.3019 -85.4369 44 70 44 0.915262 -0.153247 0.372572 
-31.1307 43.1969 -85.3911 88 83 90 0.406246 0.118663 0.906026 
-31.0925 42.7162 -85.4294 134 132 134 0.391421 0.133279 0.910509 
-25.4277 42.9495 -88.3518 110 106 116 0.316186 0.0162467 0.948558 
-31.9833 44.0569 -85.0901 114 107 120 0.257093 0.271297 0.927524 
-27.5354 42.7201 -86.093 111 131 100 0.729461 0.328338 0.600067 
-31.7005 44.1813 -85.2849 88 84 95 0.228493 0.323339 0.918283 
-28.4235 38.7602 -86.2842 53 48 60 0.448369 0.111739 0.886837 
-30.4755 43.5908 -85.7348 120 123 117 0.303914 0.312809 0.899882 
-27.1179 42.4025 -86.6465 85 112 73 0.094411 0.599873 0.794505 
-28.0464 40.6675 -84.8869 49 71 51 0.301997 -0.576831 0.758988 
-30.7472 42.7124 -85.3109 90 116 81 0.266581 0.364873 0.892078 
-28.4047 42.2014 -84.3479 111 150 100 0.609192 -0.110095 0.785344 
-25.8434 42.5002 -88.2451 101 94 100 0.337494 0.0669735 0.938942 
-26.4892 42.9022 -87.5136 135 137 119 0.225639 0.0970624 0.969364 
-27.7787 40.8396 -86.5876 73 98 74 0.391939 0.071384 0.917218 
-28.9904 39.8841 -86.0954 81 77 81 0.49513 -0.265414 0.827286 
-27.5277 41.7949 -85.6265 28 52 28 0.503441 -0.160924 0.848911 
-26.7917 38.3462 -87.2469 124 119 126 0.414642 0.110292 0.903276 
-26.1369 40.9877 -87.8226 98 94 103 0.588049 0.0729696 0.805527 
-29.8326 41.1132 -84.2623 104 143 90 0.463018 -0.280288 0.840865 
-30.7532 41.2378 -84.1793 103 141 93 -0.346055 -0.166723 0.923282 
-30.4703 39.2669 -85.3649 126 120 129 0.435085 -0.287494 0.853258 
-28.8077 39.4908 -86.291 180 179 184 0.412437 0.0748647 0.907905 
-29.8428 40.1295 -85.6176 74 80 70 0.407791 -0.345294 0.845268 
-26.9595 43.1971 -87.4162 129 141 121 0.292539 0.0389215 0.955461 
-26.6977 38.7982 -87.213 153 147 155 0.273969 0.297162 0.914678 
-27.8716 39.5233 -86.7366 145 148 150 0.2929 0.383957 0.875664 
-28.4166 40.2379 -86.0863 46 50 49 0.0682913 -0.486401 0.871063 
-29.4028 42.3488 -83.7923 111 152 98 0.156046 0.692358 0.704478 
-28.8258 41.8266 -83.9722 98 135 84 0.36847 0.067841 0.927161 
-26.1886 42.1238 -87.5094 29 42 28 0.616241 -0.376318 0.691833 
-31.1094 44.3259 -85.6156 88 82 93 0.51902 0.401136 0.75479 
-30.9066 44.3883 -85.5586 70 68 73 0.539495 0.0901544 0.837148 
-30.8105 44.4215 -85.8338 92 86 97 0.254706 0.354822 0.89957 
-29.065 39.3769 -86.0812 134 128 134 0.449834 0.00131147 0.893111 
-31.0146 44.5547 -85.6889 70 63 75 0.279835 0.314998 0.906901 
-28.8552 40.4888 -86.0328 27 34 31 0.466786 -0.664208 0.5839 
-28.7295 43.7171 -86.0268 96 131 79 0.172038 0.619642 0.765798 
-25.4589 43.4011 -88.2566 95 91 101 0.412791 -0.261585 0.872455 
-30.6937 44.3514 -85.9205 111 105 115 0.549153 0.336578 0.764949 
-30.0029 44.1229 -86.1759 95 109 91 0.255114 0.358339 0.898059 
-26.3295 42.4979 -87.2952 117 141 101 0.702067 0.199926 0.68347 
-27.2255 39.8112 -87.0304 105 101 112 0.419128 -0.296307 0.858215 
-30.4881 44.5451 -85.9466 84 79 88 0.267967 0.326539 0.906403 
-25.8335 40.1252 -87.7884 96 90 101 0.352253 0.121987 0.927921 
-32.1317 43.4741 -84.9406 82 75 86 0.55022 0.319224 0.771592 
-26.2541 41.2116 -87.697 83 82 88 0.533526 -0.191948 0.823715 
-30.3446 40.821 -84.771 112 143 101 0.502169 -0.280026 0.818176 
-29.2998 41.7375 -83.8146 92 131 80 0.338777 0.160327 0.927106 
-30.9053 43.8791 -85.6424 86 81 90 0.461729 0.259243 0.848292 
-29.9914 41.5074 -83.7151 101 144 86 0.164362 -0.355415 0.920144 
-26.9788 40.7013 -87.271 114 112 121 0.548853 0.140542 0.824019 
-27.6516 42.4485 -85.9946 95 114 89 0.709775 0.209671 0.672501 
-29.063 38.9332 -85.9635 74 68 76 0.436784 0.0333933 0.898947 
-30.4808 43.793 -85.7864 147 146 149 0.469657 0.252421 0.845994 
-30.3887 44.0352 -85.7737 87 104 82 0.32901 0.497488 0.802657 
-30.553 43.6011 -85.7163 110 111 109 0.474605 0.239591 0.846963 
-27.5422 40.7444 -85.4655 60 78 64 0.626156 -0.202534 0.752933 
-29.1792 43.2409 -85.4377 108 140 92 -0.168215 0.771365 0.613758 
-29.5734 44.5813 -86.416 127 128 128 0.420975 0.0986443 0.901693 
-31.4427 44.116 -85.4533 87 82 93 0.540067 0.0662746 0.839008 
-31.1264 44.2533 -85.6751 81 75 86 0.506516 0.138672 0.851006 
-28.4424 41.6521 -84.0884 137 175 128 0.390301 0.0463069 0.919522 
-27.6622 39.8487 -86.7826 104 103 111 0.388389 -0.341968 0.855694 
-25.7175 44.0744 -88.2873 106 102 110 0.434809 0.0640627 0.898241 
-26.6118 41.8807 -87.2238 87 110 84 0.58684 -0.22142 0.77884 
-29.2255 39.1249 -85.8721 74 69 76 0.555423 0.143669 0.819063 
-28.5518 42.7972 -85.1314 74 109 60 0.362854 0.684661 0.632121 
-25.9788 44.8501 -88.1271 99 97 107 0.270297 0.0207921 0.962552 
-26.5656 42.1776 -86.7907 124 154 111 0.770039 -0.13256 0.624074 
-30.8083 38.8928 -85.1999 111 108 113 0.373481 0.297877 0.878511 
-26.3782 38.7796 -87.3866 137 142 138 0.379559 0.0115798 0.925095 
-30.6319 40.2152 -84.1582 103 112 100 -0.0178925 0.824432 0.565679 
-25.2375 42.7337 -88.297 64 63 72 0.285497 0.303066 0.909199 
-28.9698 41.6724 -84.1499 125 167 112 0.546168 0.156261 0.822972 
-31.6715 40.0569 -84.847 81 76 83 0.40251 0.161863 0.900992 
-26.3043 42.7456 -87.9877 117 114 110 0.437259 0.10826 0.892796 
-27.3837 41.8513 -86.1534 40 67 36 0.704154 0.206738 0.679283 
-30.7221 44.1903 -85.6178 83 86 86 0.530692 0.136716 0.836465 
-28.0034 40.7979 -84.8546 59 84 61 0.455931 -0.586197 0.669701 
-31.8601 41.2182 -84.66 104 108 104 0.445043 -0.233836 0.86444 
-26.1896 40.7186 -87.8257 121 118 124 0.241857 0.299101 0.923062 
-27.3769 43.1623 -87.0191 122 142 107 0.288478 0.376078 0.880537 
-26.0538 41.3511 -87.8751 89 91 91 0.346495 -0.0139613 0.937948 
-31.1141 42.3009 -85.1201 103 108 99 0.0295414 0.735722 0.676639 
-26.2145 41.2881 -87.8363 114 118 112 0.381918 -0.150794 0.911811 
-29.3643 44.768 -86.5892 86 83 88 0.276544 0.397437 0.874967 
-26.1457 41.1218 -87.8177 83 84 83 0.375994 -0.0193812 0.926419 
-26.0981 41.5257 -87.7943 129 133 130 0.361305 -0.0218583 0.932192 
-31.1358 44.5211 -85.6155 97 92 101 0.558326 0.0846818 0.825289 
-29.1226 41.7728 -83.7375 120 160 106 0.304927 -0.396865 0.865747 
-26.1753 42.3606 -88.0491 78 83 73 0.36377 0.128633 0.922564 
-26.5837 39.017 -87.3685 118 117 124 0.201723 0.46471 0.862179 
-27.1082 40.6654 -87.1256 107 114 113 0.579243 0.131848 0.804421 
-28.9068 40.3906 -84.6354 86 111 83 0.359442 -0.668004 0.651591 
-27.1808 38.4026 -87.0062 101 97 108 0.403169 0.167867 0.899597 
-27.4668 42.2563 -86.2679 91 113 84 0.503288 0.135669 0.853402 
-27.2533 41.7478 -86.0864 62 89 56 0.534243 0.00405754 0.845321 
-26.072 43.9277 -88.0023 110 108 115 0.425252 0.0811971 0.901425 
-27.8358 40.2779 -86.2655 50 54 55 0.454451 -0.44142 0.773707 
-31.3275 42.5013 -85.2311 77 75 79 0.383697 0.13255 0.913897 
-27.3184 41.9284 -86.0814 56 83 51 0.903562 0.0332681 0.427163 
-32.0442 44.2934 -85.0622 83 75 88 0.359771 0.0929744 0.928397 
-28.9156 42.6344 -84.8266 67 105 55 -0.0350564 0.612786 0.789471 
-30.2676 43.4411 -85.7752 137 151 123 0.195659 0.473464 0.858807 
-29.1306 39.4203 -85.9526 79 75 81 0.51961 -0.114343 0.846718 
-31.9387 42.3638 -84.9835 81 76 85 0.43157 0.027886 0.901649 
-29.3825 43.6649 -85.7545 69 93 54 0.0707299 0.668325 0.740499 
-27.5829 39.5551 -86.8591 130 129 134 0.395505 0.139342 0.907832 
-30.602 40.8535 -84.0646 103 133 95 -0.413413 0.0303786 0.910037 
-28.6981 41.1008 -83.9979 122 157 116 0.493735 0.107334 0.862963 
-31.2155 42.4502 -85.4039 89 89 90 0.410967 0.0982446 0.906341 
-29.2214 41.7295 -83.7593 88 128 77 0.37213 0.0460232 0.927039 
-31.0037 40.5628 -85.2096 100 107 100 0.579889 -0.0609663 0.812411 
-31.5163 42.3169 -85.1523 102 101 104 0.37001 0.194363 0.908469 
-25.1959 41.9638 -88.2847 150 145 157 0.193544 0.299367 0.934302 
-29.8245 40.0926 -85.5547 89 97 82 0.675682 0.199458 0.709698 
-26.2052 39.928 -87.5279 90 84 95 0.297038 -0.178223 0.938086 
-28.5579 40.1115 -86.1705 45 50 48 0.624449 -0.0764337 0.777317 
-28.1447 42.253 -84.8748 100 135 93 0.266589 0.337286 0.902867 
-26.407 39.9438 -87.446 108 103 115 0.483475 -0.185952 0.855379 
-27.6401 44.638 -87.3911 75 74 80 0.644948 0.145827 0.750184 
-28.0901 43.1792 -85.4197 97 133 76 0.145191 0.597228 0.788821 
-29.8779 42.3874 -84.8083 106 142 92 -0.17866 0.910451 0.373042 
-27.3355 41.9356 -85.8463 43 65 40 0.580191 -0.502832 0.640733 
-26.6478 38.8205 -87.2714 152 150 155 0.380341 0.132353 0.915327 
-31.9655 42.8218 -84.9202 137 131 139 0.606252 0.181723 0.774232 
-29.0837 43.3053 -85.0961 117 149 101 0.259341 0.507811 0.821505 
-28.7959 43.6965 -85.7061 93 122 79 0.0437545 0.605505 0.794638 
-32.2461 43.9244 -84.9769 87 78 91 0.36744 0.0539966 0.928478 
-26.2034 43.1726 -87.9247 89 93 94 0.368516 0.00892599 0.929579 
-29.1861 44.5946 -86.542 65 74 65 0.24727 -0.0874956 0.964988 
-28.2306 40.3069 -85.0851 33 45 32 0.332212 -0.484807 0.809072 
-29.5642 39.8291 -85.6294 127 135 126 0.413372 0.0777631 0.907236 
-27.6166 38.7169 -86.8217 126 121 133 0.388069 0.282369 0.877308 
-29.9999 42.3663 -85.0541 122 154 107 -0.051692 0.839645 0.54067 
-27.1478 38.1764 -87.0003 114 111 122 0.505696 0.126062 0.853452 
-28.6043 44.0422 -86.5471 77 89 71 0.330125 0.430258 0.840176 
-27.7376 41.5421 -85.6634 31 55 32 0.574597 0.150738 0.804435 
-26.7109 38.8147 -87.189 115 113 121 0.314973 0.0552809 0.947489 
-27.4539 42.5785 -86.1677 67 85 59 0.760808 0.235897 0.604585 
-27.2733 41.5314 -86.1608 74 99 69 0.780672 -0.505901 0.3669 
-27.3028 38.471 -86.9998 79 73 85 0.632783 -0.366521 0.682091 
-31.1662 40.2108 -84.4402 109 109 110 -0.134079 0.901856 0.410704 
-27.2149 43.4805 -87.2803 129 145 117 0.686099 0.192724 0.701517 
-32.0504 43.6308 -84.9876 95 88 99 0.510173 0.12936 0.850288 
-28.9869 42.4155 -84.206 116 160 104 0.209926 0.65466 0.72619 
-31.9045 42.1758 -84.89 81 77 84 0.0861907 0.682222 0.726047 
-25.3577 41.3679 -88.2104 137 130 141 0.348591 0.0728992 0.934436 
-27.1795 42.5837 -86.8456 117 144 105 0.7031 0.223927 0.674913 
-29.4111 42.2773 -84.1967 102 140 89 0.269868 0.0308068 0.962404 
-30.8346 39.4612 -85.2203 90 91 91 0.471022 -0.0146777 0.881999 
-26.4448 44.8605 -87.9881 139 137 146 0.250728 0.0230136 0.967784 
-30.4457 40.4729 -84.3467 125 145 119 -0.00135998 0.825507 0.564391 
-26.2215 40.9029 -87.7674 102 99 107 0.570232 -0.125245 0.81188 
-27.6787 42.7408 -86.2121 101 118 91 0.622527 -0.348027 0.700955 
-28.1701 38.6518 -86.421 68 64 76 0.601285 0.274465 0.750417 
-26.5094 39.894 -87.3902 132 128 139 0.460257 -0.165108 0.872297 
-32.2362 42.2462 -84.7414 108 101 111 0.346526 0.390036 0.853107 
-29.3784 41.4326 -83.8746 109 147 95 0.486588 -0.761829 0.427607 
-28.8563 40.8614 -84.2167 40 75 36 0.446663 0.0700918 0.891952 
-26.7455 41.8644 -87.1696 134 158 122 0.452207 -0.234422 0.860555 
-28.8534 43.1959 -85.4432 136 167 120 -0.149599 0.660351 0.735906 
-27.2058 42.076 -86.3545 82 108 75 0.0873247 0.439396 0.894039 
-26.9686 43.3748 -87.7523 143 152 136 0.611747 -0.289102 0.736332 
-32.5253 42.9223 -84.665 42 34 45 0.57936 0.151203 0.800924 
-26.2376 41.6612 -87.7782 123 126 130 0.380341 -0.132353 0.915327 
-32.3346 43.7261 -84.877 81 72 84 0.35969 0.0703453 0.930416 
-28.2507 40.7241 -84.6603 59 87 58 0.340686 -0.3998 0.850937 
-31.0812 39.9039 -85.1359 79 74 85 0.568151 -0.0262649 0.822505 
-25.7452 42.4371 -88.085 90 86 91 0.344386 0.0951415 0.933995 
-26.8045 42.984 -87.6148 163 170 153 -0.0381724 0.745068 0.665896 
-28.5866 38.5312 -86.2563 87 82 91 0.288478 0.376078 0.880537 
-26.8653 40.7375 -87.3642 130 134 133 0.418568 0.101513 0.902494 
-25.1929 42.2784 -88.2764 69 67 78 0.439661 0.10535 0.891964 
-28.8181 44.0193 -86.3641 92 121 79 0.0708949 0.736439 0.672779 
-26.5371 43.482 -87.7997 120 117 120 0.280648 0.117266 0.95262 
-25.4917 43.5285 -88.2359 146 144 154 0.444977 -0.196618 0.873692 
-27.0774 44.2254 -87.6195 135 131 137 0.228339 0.201317 0.95254 
-26.5026 39.7556 -87.3752 145 138 149 0.185825 0.545388 0.817326 
-26.2846 40.7586 -87.6464 87 84 94 0.376787 0.0850808 0.922384 
-29.0648 43.7843 -85.8326 72 99 57 0.110842 0.734511 0.669484 
-26.5837 45.044 -87.9897 129 128 138 0.241687 -0.00833402 0.970319 
-26.782 41.5868 -87.1012 112 133 101 0.531637 -0.514867 0.672513 
-26.2877 44.0669 -87.9286 166 161 167 0.262221 0.023173 0.96473 
-28.1309 40.8962 -84.5082 69 97 70 0.435381 -0.54464 0.716806 
-32.4605 42.9022 -84.734 75 67 79 0.574827 0.15759 0.802957 
-28.8985 38.8015 -86.0653 133 128 134 0.414586 0.169013 0.894177 
-26.7992 42.8004 -87.3288 156 171 140 0.0168118 0.386672 0.922064 
-27.783 44.7429 -87.4422 97 94 101 0.434798 0.0902935 0.89599 
-27.5002 40.9731 -85.7638 25 43 29 0.590267 0.0406597 0.806184 
-29.1121 44.7702 -86.7503 81 83 86 0.317185 0.140215 0.937941 
-31.2244 42.2346 -85.0593 97 105 92 0.0500334 0.713333 0.699037 
-29.3785 43.2175 -85.3556 97 131 83 0.0708149 0.695143 0.715375 
-26.4744 41.3368 -87.5474 103 107 101 0.506516 0.138672 0.851006 
-31.4888 39.8964 -84.5001 104 98 105 0.00685849 0.802443 0.596689 
-30.852 44.4305 -85.7812 83 81 86 0.479801 0.0451095 0.876217 
-28.9535 44.295 -86.4693 114 138 103 0.555468 -0.436084 0.708015 
-31.275 40.1239 -84.3923 111 119 109 0.555333 -0.153349 0.817367 
-30.2305 38.7888 -85.2876 120 112 123 0.466512 0.137209 0.873808 
-31.3739 43.4878 -85.2694 122 115 125 0.370894 0.0624804 0.926571 
-27.5172 40.4621 -86.9511 55 56 64 0.314179 0.113639 0.942538 
-31.1804 43.1258 -85.4351 104 108 102 0.435771 0.0932801 0.895211 
-27.6411 42.7808 -85.8444 42 63 32 0.709609 0.393495 0.58448 
-28.8016 41.8164 -83.9691 106 146 90 0.511971 -0.366616 0.776839 
-29.8787 41.0209 -84.3076 128 168 117 -0.0995415 0.890265 0.444432 
-26.5759 44.347 -87.8807 80 75 83 0.206002 0.298493 0.931915 
-26.6137 43.9382 -87.835 128 123 129 0.23845 0.227423 0.944151 
-27.5483 39.7291 -86.8008 93 90 101 0.368289 -0.349798 0.861397 
-28.5072 40.6934 -84.5392 64 96 61 0.35357 -0.521476 0.776563 
-28.5784 42.4981 -84.5868 106 145 93 0.323953 0.568932 0.75589 
-27.0015 43.1365 -87.3198 82 103 70 0.567978 0.415634 0.710387 
-29.4687 42.8672 -85.223 102 138 87 0.581606 0.1578 0.798018 
-30.544 39.6212 -85.3084 96 92 99 0.422324 -0.159993 0.892213 
-27.8095 40.6491 -85.2526 37 56 41 0.671079 -0.347785 0.654751 
-31.3911 43.281 -85.1732 117 110 119 0.319836 0.264339 0.909852 
-30.4077 38.9623 -85.1141 96 87 96 0.538787 -0.175594 0.823939 
-27.6106 39.9084 -86.8216 102 100 109 0.431778 -0.198942 0.879767 
-27.1956 41.8794 -86.5918 89 116 82 0.636466 -0.55543 0.535172 
-29.3973 42.9026 -85.3435 109 145 93 0.358122 0.0758847 0.930586 
-30.0659 43.541 -85.8794 135 167 119 0.294344 0.462541 0.836312 
-31.8182 44.1712 -85.194 100 94 106 0.249704 0.0849246 0.964591 
-27.0349 41.7771 -86.7694 60 87 51 0.700932 -0.444534 0.557749 
-26.9815 44.8194 -87.6955 101 99 108 0.535448 -0.339278 0.773425 
-29.3259 43.3291 -85.6079 135 168 120 0.269516 0.395993 0.87781 
-25.6851 43.8737 -88.2483 138 131 139 0.36041 0.0620485 0.930728 
-26.8685 44.6213 -87.8557 120 116 124 0.251698 0.176323 0.951608 
-30.7947 40.6669 -84.4122 116 128 111 0.338781 0.341819 0.876577 
-30.8555 40.0076 -85.242 66 61 67 0.420899 -0.0808894 0.903494 
-27.4902 42.3705 -86.3739 90 114 81 0.188523 0.523339 0.831009 
-26.998 39.0243 -87.1864 106 103 113 0.333754 -0.21343 0.918181 
-25.4857 42.3366 -88.1653 124 122 131 0.51807 0.132801 0.844966 
-31.3228 39.4255 -84.9731 71 64 75 0.463449 0.0533172 0.884518 
-30.2974 41.9283 -84.0246 98 137 87 0.464901 0.0912948 0.880643 
-27.9586 41.7722 -84.7974 62 94 62 0.535203 -0.140067 0.83303 
-32.1873 43.1833 -84.9012 90 83 94 0.568941 0.153808 0.807867 
-25.8642 39.8808 -87.8093 86 80 91 0.406371 0.0834634 0.909888 
-31.9607 42.1185 -84.7645 70 69 74 0.304419 0.463653 0.832078 
-30.6994 44.1415 -85.7466 51 52 54 0.517005 0.136208 0.845076 
-27.3461 44.5279 -87.5722 140 136 143 0.381657 0.0768709 0.921102 
-26.3742 42.9508 -87.8645 69 76 68 0.421243 -0.0170597 0.906787 
-26.703 44.6888 -87.8895 163 158 167 0.316774 0.108264 0.942302 
-27.7714 39.884 -86.5724 111 108 113 0.390491 -0.29021 0.873667 
-30.6977 40.0596 -85.344 86 85 87 0.453104 -0.0762101 0.888194 
-30.9014 43.6538 -85.5188 112 107 114 0.370894 0.0624804 0.926571 
-32.3063 41.9364 -84.6831 70 63 73 0.497263 0.14145 0.855992 
-30.7411 40.9771 -84.5766 133 168 122 0.350063 0.319755 0.880462 
-30.9351 44.3846 -85.7515 106 103 110 0.563273 0.0755784 0.822807 
-31.0312 40.2656 -84.1519 105 106 105 -0.0430594 0.840353 0.540326 
-26.33 42.8869 -87.8573 30 37 29 0.432383 -0.27043 0.860182 
-31.3838 40.1234 -84.9714 118 117 120 0.361324 0.266161 0.893646 
-27.0821 39.7412 -87.1371 137 133 144 0.467422 -0.23904 0.851103 
-29.9844 39.6736 -85.4907 139 155 133 0.410088 0.0776579 0.908734 
-26.5922 43.0619 -87.8137 128 128 120 0.306498 0.055144 0.950273 
-27.2223 40.6223 -87.1068 62 60 69 0.527991 -0.0574208 0.847307 
-32.0551 42.8546 -84.9241 119 111 123 0.427529 0.297881 0.853514 
-31.5635 43.7888 -85.3039 174 170 180 0.544116 0.140084 0.827233 
-25.8198 40.4944 -87.9714 109 103 113 0.0835735 0.508524 0.856983 
-27.0963 38.558 -87.0932 120 116 125 0.512796 -0.158124 0.843823 
-26.4739 38.8809 -87.3589 115 114 118 0.420141 0.12873 0.898282 
-26.1727 41.4688 -87.8079 132 138 131 0.384483 -0.147878 0.911211 
-28.0582 40.3187 -85.734 51 59 55 0.534077 -0.534077 0.655381 
-27.3599 43.0006 -86.9991 119 141 105 0.473696 0.421606 0.773215 
-31.2197 41.704 -84.5568 135 173 126 0.0644816 0.772347 0.63192 
-27.2355 43.0199 -86.9811 121 145 106 0.293607 0.180575 0.938716 
-30.7526 40.662 -85.3518 106 118 104 0.295622 0.101169 0.949933 
-26.05 45.0924 -88.0372 157 151 165 0.558729 -0.484903 0.672824 
-30.5815 44.4093 -85.9425 65 65 65 0.533271 0.0573861 0.843996 
-25.2878 41.8306 -88.1726 71 69 80 0.421232 0.113355 0.899841 
-28.9139 42.5611 -84.2594 86 124 73 0.292331 0.414773 0.861688 
-30.8606 39.5088 -85.1911 74 68 78 0.394405 0.0491346 0.917622 
-30.0221 42.9864 -85.1497 133 173 115 0.44695 -0.187335 0.874724 
-27.5144 41.0768 -85.5732 41 64 44 0.607133 -0.0265184 0.794158 
-29.2959 42.8392 -84.5028 116 155 102 0.577644 0.0377636 0.815415 
-30.0103 39.5324 -84.819 118 120 115 0.22605 0.0130186 0.974029 
-27.0086 40.6962 -87.2853 99 105 104 0.29405 0.296976 0.908482 
-31.2962 44.1347 -85.4793 86 80 89 0.357275 0.116354 0.926724 
-29.2118 43.7586 -85.8866 65 92 49 0.107658 0.641527 0.759509 
-26.3481 38.3063 -87.3698 148 159 142 0.344613 0.0699789 0.936133 
-27.6484 40.128 -86.7969 61 59 63 0.516514 -0.0399437 0.855347 
-26.1003 41.9317 -87.7664 77 79 81 0.320304 0.0609486 0.945352 
-28.7615 38.8632 -86.077 142 138 148 0.629938 0.219312 0.745037 
-31.2365 42.8586 -85.2931 81 93 81 0.504629 0.122904 0.854543 
-29.3187 41.7332 -83.8521 94 135 81 0.337614 0.11525 0.934202 
-32.8556 44.2235 -84.7059 84 74 88 0.536374 -0.0233206 0.843658 
-30.5238 42.4745 -85.4696 98 123 84 0.201711 0.611291 0.765269 
-26.423 41.3988 -87.7311 141 153 135 0.330519 0.0531422 0.942302 
-26.8568 39.6399 -87.282 122 118 128 0.211426 0.460339 0.862199 
-30.0143 42.9164 -85.316 121 155 106 0.14573 0.638507 0.755692 
-26.3091 40.8435 -87.6384 121 118 125 0.493559 0.0202833 0.869476 
-29.1793 44.3942 -86.5331 118 131 111 0.296497 0.36272 0.883472 
-29.5843 40.2266 -85.6126 82 91 77 0.38005 -0.227443 0.896566 
-27.657 41.9178 -85.2793 39 67 37 0.53498 0.142956 0.832682 
-27.0359 41.1033 -87.2401 104 105 112 0.653348 -0.101306 0.750249 
-27.6621 43.0331 -86.0406 106 125 94 0.686027 0.0954856 0.721283 
-25.1961 42.2794 -88.2458 109 106 115 0.407192 0.0891161 0.908984 
-32.139 43.3902 -84.8786 66 59 70 0.537521 0.136958 0.832054 
-27.6093 42.7503 -86.1246 85 104 74 0.75759 0.239982 0.607013 
-27.2507 43.7201 -87.3196 95 102 88 0.570092 -0.0207055 0.82132 
-27.4743 42.9301 -86.4188 81 99 73 0.711742 0.226819 0.664814 
-26.1893 41.7765 -87.7459 61 65 68 0.590325 0.15772 0.791606 
-29.9547 41.2559 -83.7272 136 176 122 0.486401 0.0682913 0.871063 
-29.846 42.8379 -85.52 108 142 93 0.349678 0.386977 0.853214 
-27.1534 42.0055 -86.5498 56 83 46 0.831239 0.244301 0.499358 
-27.9796 40.3717 -85.7128 43 53 49 0.504903 -0.498237 0.704864 
-30.4079 42.9544 -85.5748 90 114 77 0.30249 0.326331 0.895549 
-25.4717 41.4909 -88.206 78 72 80 0.422853 0.104667 0.900133 
-30.47 42.6277 -85.5581 134 164 119 0.472221 -0.159356 0.866956 
-27.1355 42.9165 -87.0241 127 151 113 0.300835 0.364328 0.881342 
-28.8136 42.0284 -83.9416 139 180 126 0.442847 0.254143 0.859824 
-27.8942 43.4706 -87.0885 133 148 119 0.580392 -0.466655 0.667367 
-26.1037 42.0979 -87.9478 29 33 37 0.27481 0.238168 0.931534 
-28.0996 42.7514 -84.8333 119 159 102 0.433247 -0.32689 0.839905 
-30.0394 41.087 -84.2974 129 167 118 0.0619042 0.727015 0.683826 
-30.4906 40.0314 -85.2618 135 153 130 0.46459 0.00661809 0.885501 
-30.2695 42.9605 -85.7057 128 157 111 0.509556 0.509556 0.69333 
-27.3711 40.2516 -87.0972 90 88 97 0.409669 0.083578 0.908397 
-27.3321 43.9344 -87.5286 91 96 92 0.322023 0.0474695 0.945541 
-29.213 40.9324 -84.0627 107 143 100 0.42984 0.0782776 0.899505 
-25.6165 40.9759 -88.0438 75 69 79 0.341164 0.0949909 0.935192 
-26.6359 43.0961 -87.5845 137 139 129 -0.026695 0.720765 0.692665 
-30.0079 40.6229 -85.64 55 74 56 0.401432 0.121689 0.907769 
-29.8847 40.7709 -84.0145 138 174 125 0.56356 -0.22388 0.795159 
-28.1453 39.5291 -86.5844 138 133 142 0.450917 -0.464035 0.76246 
-27.1061 44.3948 -87.7369 115 111 118 0.226518 0.306298 0.924592 
-27.1329 41.7934 -87.0905 39 59 39 0.593027 -0.207945 0.777867 
-28.3252 40.0672 -86.386 70 93 74 0.458113 0.258934 0.850344 
-27.0106 44.6558 -87.8168 105 100 109 0.319521 0.0607995 0.945627 
-26.0562 43.2796 -88.0501 68 67 72 0.240319 0.375959 0.894931 
-29.4315 43.8113 -85.9959 108 142 92 -0.0125123 0.649251 0.760471 
-26.5513 41.2733 -87.4743 103 115 97 0.223223 0.305688 0.925595 
-30.206 43.5982 -85.8132 129 157 117 0.254463 0.446454 0.857862 
-29.2843 39.9336 -85.9074 134 134 129 0.537569 -0.205586 0.817774 
-27.3263 42.5734 -86.3824 65 84 57 0.69715 0.258851 0.668565 
-31.0541 41.1256 -84.7492 97 133 85 0.378439 0.0487883 0.92434 
-27.5578 42.2689 -85.9699 66 88 63 0.706744 0.209693 0.675678 
-31.9131 42.0284 -84.6265 105 102 107 0.238469 0.5154 0.823101 
-27.7522 40.0831 -86.5145 75 75 81 0.359681 -0.212342 0.908593 
-31.3968 44.2051 -85.3725 82 75 86 0.451155 0.0997881 0.886849 
-31.4266 39.9803 -84.8978 74 73 77 0.5871 -0.023595 0.809171 
-31.8876 40.5227 -84.8269 118 110 120 0.390822 0.196137 0.899327 
-31.4449 43.5212 -85.276 69 65 72 0.629083 -0.223223 0.744597 
-32.9315 43.788 -84.6579 61 53 67 0.497822 0.122652 0.858563 
-30.8111 43.1669 -85.5568 98 101 97 0.376153 0.191679 0.906514 
-27.8641 42.5833 -85.0002 86 120 74 0.507777 0.139017 0.850198 
-32.2784 42.1097 -84.698 108 103 112 0.420038 0.0752511 0.904381 
-29.6173 42.3478 -83.8493 130 173 117 0.450386 0.0906349 0.888222 
-28.4715 39.989 -86.4681 58 55 62 0.615155 -0.428441 0.661833 
-31.2984 39.8765 -85.0485 73 71 75 0.568203 0.0848708 0.8185 
-25.7943 43.1637 -88.0805 161 152 160 0.380045 0.0852059 0.921035 
-26.2025 39.9155 -87.6924 130 124 133 0.4143 0.0983788 0.904808 
-29.0405 38.555 -86.0791 99 93 105 0.543395 -0.395644 0.740397 
-27.7263 40.3042 -86.8996 59 65 66 0.378981 0.0709753 0.922679 
-26.028 42.8493 -88.066 110 109 112 0.330993 -0.144209 0.932549 
-30.6902 42.4317 -85.3728 115 136 106 0.215193 0.605328 0.766336 
-26.0663 39.9943 -87.6773 84 78 88 0.3101 0.232932 0.921727 
-29.8751 40.1323 -85.6289 80 87 76 0.407083 0.0276658 0.912972 
-27.1301 39.0299 -87.1143 127 123 134 0.34605 -0.0895188 0.933935 
-31.1025 39.8929 -85.1176 65 61 68 0.493894 0.0982094 0.863958 
-29.5093 42.664 -84.676 117 158 100 0.276207 0.550836 0.787585 
-26.3444 44.5619 -88.0291 104 102 111 0.298834 -0.301778 0.905333 
-26.5921 40.6243 -87.4747 131 127 136 0.496132 0.0426042 0.867201 
-32.0494 43.7408 -84.9879 84 77 89 0.556973 -0.370771 0.743175 
-25.9894 42.8476 -87.7573 104 102 104 0.380045 0.0852059 0.921035 
-31.8421 42.0876 -84.8813 65 71 65 0.660752 0.133349 0.738664 
-26.0108 41.7533 -87.8706 116 120 117 0.347308 -0.0165385 0.937605 
-25.5679 41.4958 -88.0369 129 125 136 0.322146 0.0343792 0.946065 
-30.1196 43.2589 -85.044 121 156 103 0.149239 0.634645 0.758257 
-31.2531 43.4668 -85.4006 99 98 102 0.436066 -0.0144916 0.899798 
-27.2859 39.131 -87.0498 157 152 164 0.334844 0.316826 0.887412 
-27.6669 39.6469 -86.7013 81 79 90 0.399188 -0.470298 0.787063 
-32.1362 42.159 -84.9009 78 74 81 0.588807 -0.274565 0.760211 
-31.8687 40.4228 -84.7113 67 64 72 0.428871 -0.0753606 0.900217 
-27.2309 44.3622 -87.6872 59 60 66 0.528176 -0.356963 0.770459 
-28.4396 40.3113 -86.1136 41 46 44 0.35882 -0.289759 0.887292 
-27.1431 43.2981 -87.1 140 163 127 0.378612 0.326496 0.866056 
-30.2791 43.6581 -85.9055 126 127 122 0.156756 0.559842 0.813637 
-28.4636 42.3201 -84.5111 80 119 69 0.451308 0.275714 0.848706 
-26.2519 41.5777 -87.8093 153 158 157 0.366118 -0.0271677 0.930172 
-28.3498 39.0161 -86.4672 101 97 106 0.610433 0.240093 0.754803 
-26.5891 42.6874 -87.3069 94 110 76 0.362787 0.687818 0.628722 
-27.0615 40.6602 -87.3321 112 121 116 0.418568 0.101513 0.902494 
-31.0491 41.1501 -84.5315 99 133 88 0.373176 -0.606617 0.701966 
-28.5122 42.5463 -84.8795 135 175 121 0.222044 0.430677 0.874765 
-29.0133 44.5865 -86.7164 130 134 131 0.606939 0.148363 0.780778 
-31.3432 41.6871 -84.4264 128 165 120 0.0617183 0.762149 0.644453 
-29.6008 44.1901 -86.321 126 147 112 0.551837 0.244052 0.797443 
-27.8885 43.7456 -87.1248 161 167 148 0.284479 0.29615 0.911793 
-26.0869 42.5228 -87.2526 83 100 72 0.219224 0.161464 0.962222 
-29.1343 40.0275 -85.9302 129 130 124 0.538065 0.0663755 0.840286 
-28.5349 41.927 -84.0719 79 118 66 0.48943 -0.404877 0.772356 
-25.4069 42.2697 -88.1924 71 67 77 0.388324 0.0912902 0.91699 
-29.3386 43.8117 -86.0432 81 104 65 0.181294 0.604821 0.775451 
-27.6146 40.548 -85.7758 50 61 56 0.741492 -0.260866 0.618174 
-30.5541 44.2732 -85.9721 78 81 79 0.459388 0.087968 0.883869 
-26.344 40.6577 -87.7613 124 122 126 0.438998 0.0961616 0.893327 
-26.3467 40.353 -87.4863 121 117 128 0.450062 -0.177386 0.875202 
-27.6007 42.3032 -85.8279 76 99 73 0.726874 0.339858 0.596784 
-31.8341 41.2898 -84.7144 129 141 128 0.477501 0.0228663 0.878333 
-25.8356 40.2784 -87.8621 110 103 114 0.366817 0.143658 0.919134 
-30.8021 43.8843 -85.5878 109 103 111 0.305103 0.242077 0.921038 
-28.1366 40.1376 -86.387 61 63 68 0.398744 -0.339786 0.851792 
-27.4566 43.9863 -87.5061 120 125 117 0.363847 0.0297811 0.930982 
-25.9381 44.1835 -88.236 161 157 164 0.402543 -0.316173 0.859066 
-32.1453 44.0321 -84.9943 80 71 84 0.275972 0.0412085 0.960282 
-30.9585 42.4342 -85.4138 140 147 136 0.37096 0.187628 0.909497 
-28.3795 42.3717 -84.7673 40 79 29 0.441711 0.193526 0.876036 
-27.8671 44.1103 -87.1463 123 132 115 0.638837 0.117095 0.760379 
-30.0068 43.1541 -85.7742 128 161 112 0.0929205 0.354175 0.930551 
-31.3259 40.1065 -85.0706 72 67 75 0.576329 -0.0376777 0.816349 
-28.1079 39.0004 -86.6645 102 98 109 0.377104 0.105589 0.920133 
-31.3859 41.7826 -84.6388 111 148 102 -0.0179012 0.576969 0.81657 
-26.8304 40.092 -87.3416 130 125 132 0.418568 0.101513 0.902494 
-25.9906 41.5425 -87.8697 117 116 124 0.372944 -0.0513951 0.926429 
-28.9983 41.6452 -83.7337 79 118 67 0.480639 0.153396 0.863398 
-28.8123 39.8984 -86.3096 79 75 82 0.437794 0.0361481 0.898348 
-28.7108 43.923 -86.5238 79 105 70 0.233391 0.640651 0.731502 
-27.2418 38.1525 -86.853 157 152 163 0.490724 0.131728 0.8613 
-30.6013 40.7051 -84.4395 74 94 65 0.307954 0.3656 0.878351 
-28.8467 44.7565 -86.8326 116 113 121 0.322679 -0.0583155 0.94471 
-25.9126 40.2552 -87.6267 83 79 91 0.519994 -0.0485328 0.85279 
-28.3958 43.5089 -86.918 72 77 70 0.312915 0.161282 0.935987 
-32.2227 43.1256 -84.9218 106 97 109 0.324358 0.0448717 0.944869 
-28.3691 41.3128 -85.2911 84 118 82 0.485763 0.106839 0.867536 
-26.4526 42.5927 -87.7684 117 138 104 0.581311 -0.246 0.775604 
-30.812 41.7713 -84.3321 94 134 84 0.200212 0.557844 0.805435 
-27.5562 39.7923 -86.9875 121 122 126 0.392945 0.154625 0.906469 
-26.8127 44.7314 -87.845 110 108 116 0.302957 0.0443662 0.951971 
-27.6392 40.9461 -86.9407 42 47 53 0.401866 -0.312563 0.860702 
-27.9768 43.5284 -87.014 100 104 89 0.200963 0.459983 0.864887 
-27.6598 42.4126 -85.8923 83 98 77 0.615036 -0.198846 0.763014 
-31.2025 40.0761 -85.1504 44 40 51 0.54806 0.0782943 0.832767 
-28.5705 40.7501 -84.327 70 101 70 0.231147 -0.834271 0.500563 
-26.1023 42.5656 -87.6651 63 68 58 0.106096 0.392694 0.913529 
-27.5656 42.8519 -86.7816 87 92 78 0.545708 -0.247201 0.800683 
-26.9213 44.4682 -87.7935 147 142 150 0.384266 0.0855433 0.919251 
-28.7393 43.4969 -85.4809 94 126 78 0.354926 0.0620131 0.932835 
-31.0193 40.1014 -85.1741 61 63 71 0.555013 0.001357 0.831841 
-31.0312 44.1003 -85.6702 67 63 71 0.551142 0.137416 0.823019 
-32.0056 42.0359 -84.8987 67 69 67 0.492793 0.138098 0.859118 
-28.8594 44.2703 -86.5956 96 121 86 0.555876 -0.414021 0.720825 
-29.3816 42.1912 -84.5081 105 144 90 0.366289 0.0791614 0.927128 
-26.9724 42.0302 -86.9302 101 132 88 0.615422 -0.608677 0.500768 
-27.5616 43.495 -87.1644 123 141 106 0.274655 0.446507 0.851585 
-31.0365 44.5702 -85.6246 64 59 68 0.469976 0.0592638 0.880688 
-30.2755 41.1456 -84.0449 110 147 100 -0.411557 -0.200652 0.889022 
-29.9344 39.8564 -85.4807 96 99 91 0.674612 0.196054 0.711661 
-26.9283 43.106 -87.6357 96 113 86 0.601083 0.402378 0.6905 
-27.4677 42.2522 -85.9678 55 79 50 0.713672 0.233708 0.660343 
-28.7602 44.2548 -86.5686 95 123 85 0.376011 -0.459213 0.804823 
-26.9018 42.0869 -86.6387 94 125 81 0.594787 -0.17102 0.785481 
-26.5035 41.7504 -87.5398 141 159 135 0.366274 -0.093258 0.925822 
-28.1955 41.4812 -84.4199 130 164 131 0.553249 -0.106003 0.826244 
-31.1896 41.3367 -84.7369 111 149 103 0.237703 0.318378 0.917678 
-32.365 42.5658 -84.7607 96 87 100 0.319062 0.0368637 0.947017 
-32.3947 43.3196 -84.8287 97 87 100 0.352432 0.0563367 0.93414 
-32.4445 42.8677 -84.6821 90 81 94 0.302673 0.0211747 0.952859 
-27.8508 40.7503 -86.2087 41 52 47 0.157417 -0.885288 0.437589 
-32.0428 42.5288 -84.8533 96 89 100 0.278086 0.00364304 0.960549 
-31.4603 42.7191 -85.2088 80 79 82 0.373466 0.194664 0.906989 
-28.5622 42.1728 -84.2369 106 144 94 0.62039 0.16837 0.766008 
-27.6352 42.9418 -86.204 108 128 99 0.758603 0.233055 0.608446 
-30.6246 39.9861 -85.2168 81 97 77 0.463513 -0.00132055 0.886089 
-29.2677 39.7391 -85.9679 89 87 89 0.537903 -0.202666 0.818283 
-28.4181 41.8541 -84.3568 27 65 21 0.500627 -0.0984138 0.860051 
-29.9793 39.7995 -85.5362 105 108 102 0.427663 0.0989058 0.898511 
-28.6106 38.9655 -86.1781 94 91 95 0.287291 0.16475 0.943568 
-30.2423 40.5825 -85.5527 101 110 95 0.46718 0.121438 0.875783 
-29.3734 41.066 -83.8952 76 112 66 0.38123 -0.638684 0.668391 
-31.7636 43.5315 -85.1305 98 93 102 0.356482 0.113364 0.927399 
-27.859 44.3346 -87.2447 138 144 136 0.397609 0.0660436 0.915175 
-29.8584 43.9539 -86.139 142 149 136 0.0800743 0.688639 0.720669 
-28.3094 41.3859 -84.4146 77 111 76 0.561658 0.190264 0.805196 
-29.2592 43.8882 -85.9956 96 129 80 0.0238726 0.678262 0.734433 
-26.9517 40.9668 -87.4974 88 87 98 0.621362 -0.463928 0.631411 
-30.175 42.1704 -85.6541 127 160 112 0.296545 0.390831 0.871385 
-31.7609 41.9085 -84.8373 126 137 124 0.10785 0.660397 0.743131 
-26.812 43.1162 -87.4745 134 141 127 0.337347 0.355665 0.871607 
-30.6305 39.7158 -85.3396 85 82 88 0.467777 0.056243 0.882055 
-26.6721 44.797 -87.9976 155 151 159 0.402398 0.0947628 0.910547 
-27.4334 42.747 -86.2904 53 74 42 0.75759 0.239982 0.607013 
-29.6005 39.0063 -85.7235 118 112 120 0.614447 0.0644525 0.786321 
-32.1393 41.8027 -84.7913 104 101 106 0.478628 0.189364 0.857355 
-26.6235 41.083 -87.4035 138 146 135 0.225923 0.305493 0.925004 
-25.7366 44.3867 -88.3075 116 111 119 0.294597 0.0442528 0.954596 
-30.716 42.2925 -85.2912 123 143 114 0.225303 0.51651 0.826109 
-27.7883 39.5244 -86.7311 112 109 120 0.471979 -0.359984 0.804765 
-26.1528 41.2782 -87.7347 98 97 105 0.666831 -0.290835 0.686113 
-25.6471 42.7275 -88.1483 115 107 115 0.354209 0.145851 0.923722 
-27.7098 41.2789 -85.027 46 73 48 0.605075 -0.116304 0.787628 
-30.1048 43.8851 -86.1351 76 98 68 0.263694 0.440506 0.858149 
-25.7345 42.5341 -88.3112 67 67 77 0.313167 -0.0964607 0.944787 
-31.2375 41.725 -84.4941 116 158 104 0.318346 -0.42705 0.846336 
-29.0381 44.4156 -86.6937 104 120 100 0.309039 0.0445117 0.950007 
-27.4876 42.0327 -86.3457 77 104 71 0.368743 0.113776 0.922542 
-27.0986 43.4655 -87.0359 139 157 127 0.36538 0.0789649 0.927503 
-29.3592 39.9582 -85.7696 80 82 76 0.547033 -0.169356 0.819801 
-27.4434 42.1819 -86.2042 41 69 34 0.275739 0.390254 0.878448 
-28.3711 39.3843 -86.5046 109 107 113 0.387039 0.144964 0.910597 
-30.0551 41.1447 -83.965 113 151 101 -0.333075 -0.194176 0.92269 
-27.4051 40.7268 -86.9954 41 42 51 0.300306 0.0819017 0.95032 
-31.2058 44.0956 -85.5696 60 55 64 0.533133 0.105471 0.839431 
-29.666 39.5374 -85.8154 137 140 136 0.404313 0.0979734 0.909358 
-27.1451 43.6299 -87.6591 112 117 111 0.621578 -0.20926 0.754885 
-30.5817 43.3475 -85.7143 112 122 103 0.360795 0.15583 0.919535 
-27.9727 42.6625 -86.0114 46 60 38 0.595612 -0.317982 0.737654 
-28.3314 41.5053 -84.4456 94 130 92 0.465802 0.265953 0.843977 
-31.7553 43.9794 -85.225 58 52 64 0.236118 0.255678 0.937485 
-28.9498 43.6617 -85.9776 57 80 44 0.109916 0.599409 0.792861 
-27.2857 42.6503 -86.2701 76 95 67 0.758603 0.233055 0.608446 
-29.3029 38.7729 -85.7938 83 77 87 0.457288 -0.174975 0.871935 
-28.5042 41.049 -84.2379 54 87 51 0.462269 0.103198 0.880714 
-31.879 42.9237 -84.9377 111 103 114 0.346953 0.167155 0.922867 
-28.7055 43.9581 -86.6708 101 115 93 0.426001 0.471702 0.772024 
-32.2979 42.4206 -84.7344 67 60 72 0.373506 0.354908 0.857049 
-27.9958 40.5524 -84.9656 38 56 43 0.323064 -0.689961 0.647752 
-30.46 39.9282 -85.436 122 125 124 0.482999 -0.0709883 0.872739 
-31.8327 40.8025 -84.8733 67 67 71 0.429258 0.128919 0.893934 
-27.4889 42.1953 -86.2721 48 76 41 0.291073 0.435839 0.851658 
-26.9425 40.8443 -87.3302 105 101 111 0.611548 -0.171476 0.772402 
-27.5889 41.7749 -85.3357 77 104 76 0.676724 -0.297373 0.673509 
-29.8403 41.3172 -83.7862 119 160 105 0.485254 0.059447 0.87235 
-28.1971 43.5713 -87.0667 127 142 119 0.585691 -0.280941 0.760288 
-26.6437 43.0536 -87.6677 139 139 130 -0.0322443 0.623857 0.780873 
-26.8629 43.1858 -87.5606 129 134 123 0.288905 0.0337681 0.956762 
-25.9894 45.2831 -88.1732 113 111 120 0.38745 0.0883659 0.917646 
-30.575 40.5456 -85.0013 92 107 86 0.576003 -0.0640004 0.814938 
-31.7826 42.7782 -85.0808 108 105 110 0.595917 0.132261 0.792079 
-29.8141 43.4691 -85.6331 104 135 88 0.0528199 0.669528 0.740906 
-27.7752 40.9493 -86.0844 50 70 54 0.627147 -0.443184 0.640526 
-26.9358 41.3063 -87.3773 57 60 66 0.58197 -0.103559 0.80659 
-27.2875 41.3093 -87.1899 37 41 44 0.559209 -0.345251 0.753716 
-32.1391 42.0462 -84.6933 87 83 91 0.288451 0.475554 0.83105 
-27.4585 43.1302 -86.9227 119 139 103 0.387807 0.0684365 0.919196 
-27.0601 38.5036 -86.9922 89 82 93 0.274984 0.0646275 0.959274 
-26.9013 38.5055 -87.1102 109 102 111 0.292567 0.0983968 0.951169 
-29.9575 42.9274 -84.4582 105 142 88 -0.00728622 -0.0593306 0.998212 
-26.909 45.1623 -87.856 122 119 128 0.275691 -0.264263 0.924207 
