ply
format ascii 1.0
comment Created by CloudCompare v2.11 alpha (Anoia)
comment Created 15/10/2019 14:56
obj_info Generated by CloudCompare!
element vertex 736
property float x
property float y
property float z
property uchar red
property uchar green
property uchar blue
property float nx
property float ny
property float nz
end_header
-24.8232 15.3209 -85.7021 131 127 133 0.382737 0.153942 0.910942 
-26.6011 17.5828 -84.7559 139 134 140 0.25535 0.463299 0.848617 
-26.4251 16.1336 -84.782 55 63 49 0.271994 0.637834 0.720546 
-24.3956 13.7193 -83.3501 119 125 104 0.69715 0.258851 0.668565 
-27.0708 15.8345 -83.9428 94 96 92 0.632776 -0.286752 0.719283 
-24.2812 17.7726 -85.9457 77 68 80 0.353765 0.228564 0.906978 
-25.9193 11.8331 -84.2289 97 92 95 0.352949 0.295876 0.887629 
-25.1393 17.2372 -85.5401 102 97 103 0.411158 0.112894 0.904547 
-27.1483 17.5916 -84.5367 79 73 81 0.330154 0.354497 0.874832 
-26.3106 11.6427 -84.1055 106 100 109 0.392885 0.238696 0.888068 
-27.2188 13.3682 -83.9906 88 85 92 0.397072 0.0745357 0.914756 
-26.7831 17.8234 -84.7649 112 104 113 0.436164 0.107989 0.893364 
-25.3859 14.757 -85.0818 122 120 121 0.48731 -0.088987 0.868683 
-26.6698 16.0288 -84.0993 105 118 100 0.581664 -0.0942846 0.807947 
-25.9948 16.859 -85.0337 85 83 82 0.475818 0.134502 0.869199 
-24.5132 13.0919 -84.9283 77 81 68 0.575556 -0.125121 0.808134 
-26.2199 11.8207 -83.9809 125 119 127 0.461929 -0.0762945 0.883629 
-25.4269 14.4175 -84.995 77 72 74 0.430052 0.0960311 0.897682 
-26.0481 13.9457 -84.5756 100 93 99 0.363568 0.242869 0.899351 
-24.4264 14.3881 -85.5486 86 80 87 0.380711 0.0766803 0.921509 
-23.8746 13.586 -85.6217 59 56 66 0.369854 -0.00381292 0.929082 
-26.4052 14.4714 -84.3849 143 135 136 0.386548 0.19255 0.901945 
-27.6377 17.5882 -84.3134 81 77 86 0.344872 -0.00884287 0.938608 
-23.9207 13.1883 -84.2663 96 101 85 0.569395 -0.6796 0.462529 
-23.7123 15.3276 -86.03 123 114 127 0.418568 0.101513 0.902494 
-24.1054 15.3937 -85.7955 125 116 129 0.418568 0.101513 0.902494 
-24.1377 12.5529 -84.7802 97 94 96 0.618139 -0.332595 0.712239 
-24.4236 15.819 -85.5568 115 105 117 0.398576 -0.00644945 0.917112 
-23.6395 15.1367 -86.0425 122 114 127 0.41752 0.101259 0.903008 
-25.0914 15.6622 -85.3206 127 119 127 0.498888 0.354515 0.790841 
-25.6252 14.6584 -84.8805 102 96 99 0.459218 0.0940905 0.883327 
-26.0024 13.7203 -84.3464 111 108 107 0.327885 0.0776917 0.941518 
-25.2429 14.2972 -85.1485 128 125 124 0.537872 0.0149787 0.842893 
-24.9687 13.899 -83.5846 143 145 132 0.394043 0.491338 0.776735 
-26.918 12.8379 -83.9233 81 73 83 0.495704 0.116383 0.860658 
-25.8378 15.2181 -84.5047 90 83 83 0.587462 -0.112804 0.801351 
-26.587 16.1805 -84.3368 100 120 94 0.448225 0.114531 0.886553 
-26.7849 13.4191 -84.0603 104 98 108 0.333871 0.327828 0.883776 
-24.288 14.881 -85.6163 107 99 110 0.418568 0.101513 0.902494 
-23.8732 13.1096 -85.3259 46 46 51 0.421183 0.272173 0.865174 
-25.3838 11.5995 -84.4689 143 141 134 0.109713 0.00760387 0.993934 
-24.9346 17.6319 -85.8525 107 103 109 0.371126 0.144249 0.91731 
-24.1919 15.1412 -85.6951 78 69 81 0.418568 0.101513 0.902494 
-24.6682 14.0039 -85.7046 106 105 107 0.411158 0.112894 0.904547 
-24.1002 14.6355 -85.6625 103 99 107 0.460478 0.162264 0.872715 
-24.3002 11.3485 -85.2651 113 110 109 0.195394 0.0515458 0.979369 
-25.0075 13.1654 -84.2509 135 138 120 0.597315 0.154971 0.786892 
-24.1995 13.4167 -83.4809 113 120 96 0.466784 -0.0506481 0.88292 
-26.6887 12.1135 -84.0157 90 81 93 0.451585 0.0474639 0.890965 
-24.6345 14.735 -85.4536 106 97 108 0.479613 0.125304 0.868488 
-26.3989 13.3892 -84.2762 64 63 73 0.359529 -0.412908 0.836807 
-23.4966 12.6631 -85.7651 76 72 84 0.370408 0.0405747 0.927983 
-24.824 14.2858 -84.8284 108 104 107 0.407063 0.475177 0.780068 
-25.6847 15.6494 -84.8817 106 101 105 0.381084 0.34097 0.859368 
-25.7435 11.789 -84.2678 140 140 137 0.132081 -0.0122092 0.991164 
-23.5574 12.168 -85.6585 108 101 111 0.395601 0.0802078 0.914913 
-25.646 14.0297 -84.6616 106 100 104 0.437862 0.070003 0.896313 
-23.8039 14.6391 -85.8216 96 89 101 0.41752 0.101259 0.903008 
-26.2189 15.6258 -84.3057 99 93 87 0.372463 -0.256718 0.891834 
-24.1535 14.4904 -85.6658 107 99 111 0.41752 0.101259 0.903008 
-23.6454 14.6999 -85.9365 121 114 126 0.447656 0.0199253 0.893984 
-24.324 14.4196 -85.5784 94 86 97 0.41752 0.101259 0.903008 
-26.5771 15.7489 -84.0162 83 85 74 0.582434 -0.122385 0.803612 
-23.9104 14.3702 -85.7663 124 116 129 0.418568 0.101513 0.902494 
-25.4946 13.254 -84.2604 131 129 122 -0.0771215 0.915987 0.393726 
-22.6533 11.9186 -86.4991 122 118 128 -0.0907141 0.369626 0.924742 
-24.5427 13.8659 -85.0859 124 126 117 0.403051 0.130605 0.90581 
-23.2086 11.6784 -85.6963 120 109 122 0.472747 0.088377 0.876755 
-23.906 15.2379 -85.9947 89 81 93 0.410229 0.223627 0.88414 
-23.299 11.6421 -85.6313 66 59 71 0.470107 0.0338694 0.881959 
-24.0298 16.3353 -85.9878 103 96 107 0.368287 0.0567611 0.927978 
-23.4821 12.7335 -85.7442 82 79 90 0.453013 0.108667 0.884857 
-27.4263 16.3343 -83.6296 94 97 96 0.429931 -0.075547 0.899696 
-23.5559 14.4935 -86.0433 93 86 99 0.358516 0.355439 0.863209 
-26.9533 17.0257 -84.0128 69 83 67 0.0349828 0.799006 0.600304 
-25.378 17.996 -85.5355 76 69 79 0.418714 0.175309 0.891036 
-27.0553 12.8706 -84.0245 96 93 101 0.421606 0.00129725 0.906778 
-26.3702 17.5836 -84.6711 136 132 136 0.333109 0.306222 0.891777 
-24.4336 14.1481 -85.5297 108 102 111 0.418568 0.101513 0.902494 
-23.903 11.5094 -85.5932 107 104 108 0.355159 -0.235311 0.904705 
-24.8846 13.366 -83.1709 142 146 130 0.764137 -0.399176 0.506709 
-24.0881 14.2935 -85.6949 103 95 107 0.418568 0.101513 0.902494 
-23.7922 16.4299 -86.0532 82 72 84 0.513277 0.201374 0.834264 
-25.3059 13.998 -85.0767 92 86 92 0.4507 0.0818193 0.888918 
-24.3342 14.4112 -85.6012 93 86 96 0.418568 0.101513 0.902494 
-23.0302 12.8987 -86.0679 139 134 146 0.454005 0.111733 0.883966 
-27.1496 17.7918 -84.74 90 89 93 0.393844 -0.0194972 0.91897 
-24.6176 14.0662 -85.4718 98 92 100 0.418568 0.101513 0.902494 
-24.436 13.1585 -85.3496 73 73 69 0.403021 0.115746 0.907842 
-24.5346 13.8838 -85.4616 101 96 102 0.418448 0.104265 0.902236 
-23.7576 13.9947 -85.7748 57 51 64 0.43358 0.0670203 0.898619 
-24.543 14.4773 -85.7979 89 85 91 0.448533 0.0363676 0.893026 
-26.8662 14.4014 -84.07 110 104 108 0.479602 -0.172657 0.860332 
-25.0014 17.9784 -85.6793 121 113 122 0.390072 0.0971758 0.915642 
-25.4788 14.5046 -85.0518 106 104 107 0.454147 0.108939 0.884242 
-25.2127 13.8791 -85.3683 104 103 106 0.417845 0.172054 0.892078 
-24.5445 13.8239 -84.4982 128 132 114 0.110769 0.742891 0.660184 
-27.8589 16.5453 -83.6857 86 80 89 0.394799 0.133473 0.909021 
-26.2098 17.702 -85.0112 65 61 67 0.483337 0.169981 0.858773 
-25.8051 12.0501 -84.0778 146 142 140 0.337507 0.0478458 0.940106 
-26.7467 15.1908 -83.9462 148 149 133 0.359477 0.137406 0.922982 
-24.8492 14.196 -85.3458 87 80 89 0.420858 0.101395 0.901442 
-24.2219 13.5699 -85.5819 74 70 79 0.420858 0.101395 0.901442 
-26.4883 14.9008 -84.2289 144 141 128 0.427155 0.107839 0.897725 
-24.7395 14.4674 -85.3946 77 69 79 0.418568 0.101513 0.902494 
-23.7293 15.9958 -86.0103 129 119 133 0.391067 0.17333 0.903894 
-24.8052 13.9813 -85.4219 95 89 97 0.471053 -0.0563066 0.880306 
-24.7648 17.0122 -85.6818 87 81 90 0.338034 0.0921911 0.936608 
-24.648 15.69 -85.8264 132 128 135 0.39653 0.152074 0.905338 
-22.9452 12.4646 -86.4397 144 144 148 -0.137903 0.371922 0.917964 
-24.4926 16.7335 -85.7605 80 72 83 0.36393 0.0933501 0.926737 
-25.377 12.39 -84.3726 137 133 126 0.428024 0.0928078 0.898989 
-25.6179 12.8064 -83.9286 141 140 135 0.216806 0.548935 0.807258 
-23.5361 14.4703 -85.9668 83 78 87 0.420858 0.101395 0.901442 
-24.4744 13.5817 -85.1865 134 139 124 0.386135 0.154171 0.909468 
-24.4982 13.5685 -83.2313 131 136 116 0.279072 0.636284 0.719209 
-26.7019 16.6489 -84.2036 80 102 73 0.4205 0.542527 0.727217 
-27.973 16.7857 -83.9341 118 114 120 0.493103 0.128698 0.860399 
-23.6995 15.2865 -85.9173 106 99 110 0.655442 -0.00692856 0.755214 
-24.1746 13.0502 -85.4444 45 44 52 0.43529 0.186134 0.880839 
-265.288 -20.4014 -86.1563 134 172 197 0.108177 0.989876 -0.0918921 
-24.5258 16.8526 -86.0461 141 136 142 0.382902 0.151183 0.911334 
-23.4087 14.5743 -86.0516 88 82 94 0.418568 0.101513 0.902494 
-23.4956 14.3219 -85.9516 107 101 114 0.41752 0.101259 0.903008 
-24.5091 17.2941 -86.0429 133 127 135 0.382902 0.151183 0.911334 
-25.0829 13.6623 -83.93 137 139 125 0.0676442 0.752722 0.654854 
-26.6531 14.7117 -84.0126 80 73 68 0.509557 0.0687831 0.857683 
-23.727 14.8835 -85.9439 93 85 97 0.361906 0.238829 0.901102 
-25.0966 13.7402 -84.7195 105 104 99 -0.115989 0.929278 0.350697 
-26.5669 17.093 -83.2097 88 106 86 0.646896 -0.16591 0.744311 
-24.4852 14.0794 -85.4921 104 100 105 0.405516 0.0606254 0.912075 
-26.8419 13.5363 -84.0664 107 100 108 0.476527 0.115912 0.871485 
-26.8018 13.202 -84.0709 110 102 113 0.370386 0.181618 0.91095 
-26.5039 13.3205 -84.2403 78 71 81 0.405761 0.164885 0.898983 
-26.5779 13.2865 -84.2374 103 96 106 0.361681 0.206057 0.909245 
-25.4993 16.7789 -85.254 113 107 111 0.329327 0.120618 0.93648 
-26.5691 15.3627 -83.9066 133 130 118 0.480488 -0.0915886 0.872206 
-26.5848 13.1399 -84.1362 109 104 110 0.441923 0.10522 0.890861 
-24.6154 13.4231 -83.283 136 141 117 0.304807 -0.0263413 0.95205 
-23.2443 11.6361 -86.1194 117 114 120 0.413213 -0.207342 0.886716 
-25.0702 16.7169 -85.7408 141 137 139 0.379507 0.150956 0.912791 
-27.0518 15.7808 -84.1928 129 130 120 0.497887 -0.200057 0.843851 
-26.0301 10.8948 -84.129 117 108 119 0.475318 0.0679025 0.87719 
-23.5879 13.3805 -85.9227 72 69 82 0.296182 0.33488 0.894501 
-26.6596 13.2282 -84.102 107 99 110 0.4033 0.097728 0.909834 
-25.3485 15.6211 -85.4272 143 141 146 0.382902 0.151183 0.911334 
-24.7274 11.4751 -84.7894 120 114 116 0.473342 -0.033907 0.880226 
-25.787 14.9912 -84.6571 125 116 117 0.69055 -0.234378 0.684258 
-24.1476 12.6274 -85.4174 52 49 58 0.397976 0.077422 0.914123 
-24.6855 13.7844 -83.1984 162 164 146 0.386688 -0.014226 0.922101 
-25.1429 14.2553 -85.0678 107 101 108 0.662705 -0.0646892 0.746082 
-23.6803 13.8078 -85.7769 62 57 70 0.305091 0.428986 0.850229 
-26.5494 12.8005 -84.2034 114 110 117 0.454519 -0.0999098 0.885116 
-24.7536 15.5073 -85.4622 105 97 106 0.366837 0.210242 0.906217 
-24.8193 16.1989 -85.5782 81 74 84 0.404961 0.184337 0.895559 
-26.3637 14.4989 -84.2212 134 128 129 0.500453 0.048253 0.864418 
-25.4557 11.6331 -84.093 112 108 107 0.254297 -0.351311 0.901062 
-22.7304 12.8278 -86.1581 134 125 138 0.237901 0.379754 0.893974 
-24.7052 15.0659 -85.4458 94 87 96 0.426595 0.0986588 0.899046 
-22.9694 12.0504 -86.3253 156 152 159 -0.141209 0.376091 0.91576 
-24.4973 13.9776 -83.3412 146 149 129 0.608872 -0.122959 0.783681 
-24.4412 11.3491 -84.9517 129 122 128 0.411419 0.052265 0.909947 
-28.0235 17.1334 -83.9805 80 72 83 0.355495 0.258139 0.898325 
-24.8361 12.7661 -83.6467 136 137 119 0.414454 -0.437031 0.798268 
-24.9759 18.3463 -85.7443 103 96 106 0.494027 0.0654064 0.866983 
-26.192 12.9179 -84.2211 110 105 111 0.0439715 0.750353 0.659573 
-23.9427 15.4582 -85.9006 100 91 104 0.432832 0.0583441 0.899585 
-23.4365 14.1194 -85.9953 116 111 123 0.256042 0.337976 0.905657 
-23.0781 14.2605 -86.1199 84 80 91 0.438791 0.186376 0.879049 
-25.1937 18.345 -85.6176 105 96 105 0.442052 0.102444 0.89112 
-25.9313 18.0236 -85.1711 91 85 94 0.492813 0.167231 0.853914 
-24.6025 17.7655 -85.8044 78 71 81 0.363862 0.197032 0.910375 
-25.16 12.8694 -83.578 128 130 118 0.585872 -0.32118 0.744041 
-22.9638 13.4363 -86.1073 110 105 117 0.282279 0.353968 0.891642 
-25.5058 14.705 -84.9469 103 97 100 0.46143 0.093969 0.882186 
-23.8273 12.642 -85.575 50 49 54 0.414308 0.0806738 0.906554 
-25.1787 14.9799 -85.0452 123 117 124 0.452103 0.279285 0.847114 
-24.325 12.6951 -85.1075 107 113 95 0.440356 0.00657247 0.897799 
-25.1398 15.4284 -85.168 157 149 157 0.460451 0.337031 0.821216 
-24.3754 11.8916 -84.4602 121 116 114 0.47831 -0.403726 0.779888 
-26.0279 15.9808 -84.8721 44 39 42 0.41922 0.228259 0.878722 
-26.6743 14.0591 -84.3697 99 96 99 0.448369 0.111739 0.886837 
-23.9919 12.9554 -85.4974 42 40 51 0.399675 0.13042 0.907332 
-22.5805 11.9228 -86.2169 94 84 97 0.382721 -0.0912536 0.919346 
-26.0798 16.7909 -84.9563 105 104 100 0.511241 0.132544 0.849155 
-24.9789 16.0707 -85.4098 110 103 112 0.466832 0.100136 0.878659 
-25.2192 18.1646 -85.9097 117 113 119 0.424423 0.014454 0.905349 
-28.0754 17.2169 -84.0121 114 108 116 0.570864 0.180193 0.801027 
-26.1665 11.1681 -84.0882 99 91 100 0.473792 0.0913842 0.875882 
-23.0321 12.1751 -86.2658 152 149 155 -0.176628 0.312924 0.93321 
-23.4485 13.5038 -85.9146 41 38 50 0.3746 0.132294 0.9177 
-23.0867 13.4468 -86.1353 113 108 120 0.347795 0.070088 0.934947 
-24.2642 12.0236 -85.2081 88 82 88 0.363069 0.113716 0.924797 
-23.9032 11.711 -85.3595 109 102 112 0.468921 0.0505833 0.88179 
-24.5354 18.4962 -86.2538 141 137 143 0.374344 0.147214 0.91553 
-25.113 17.3061 -85.5345 116 108 114 0.358932 0.0648992 0.931105 
-26.0507 10.8282 -84.1133 102 92 103 0.473792 0.0913842 0.875882 
-24.407 17.2616 -85.8312 111 102 113 0.420858 0.101395 0.901442 
-27.3538 14.4749 -83.8126 104 96 103 0.410046 -0.155732 0.898671 
-26.228 16.3411 -84.6657 63 69 60 0.460533 0.118341 0.879718 
-26.1761 12.6949 -84.3792 109 107 109 0.457885 0.10003 0.883366 
-24.1602 15.8732 -85.7228 107 100 111 0.404584 0.109836 0.907881 
-23.6881 12.8514 -85.7331 53 49 60 0.43157 0.027886 0.901649 
-25.8963 14.0982 -84.7522 122 117 118 0.525586 -0.0204774 0.850494 
-26.6042 17.5577 -84.9124 110 110 113 0.494074 -0.0539744 0.867743 
-24.9283 14.9788 -85.2785 112 106 114 0.497822 0.122652 0.858563 
-25.8273 14.0572 -84.5548 93 89 89 0.352327 0.0455034 0.93477 
-26.3034 11.4047 -84.0705 96 94 100 0.215212 0.0273474 0.976184 
-24.0117 14.1774 -84.893 90 86 92 0.147088 -0.0330664 0.988571 
-25.5735 18.1793 -85.3901 117 109 118 0.371929 0.188118 0.909 
-27.7986 16.5361 -83.9975 93 89 97 0.470583 0.121579 0.87394 
-25.102 15.6336 -85.4733 139 133 139 0.38713 0.154569 0.908977 
-26.6041 15.7544 -84.1659 66 70 54 0.0729696 0.588049 0.805527 
-24.9027 14.6947 -85.6785 118 114 120 0.395512 0.151684 0.905849 
-25.5898 12.891 -83.6215 130 130 124 0.441113 -0.120561 0.889317 
-25.2443 15.2649 -85.0453 154 144 153 0.315159 0.342301 0.885158 
-26.287 16.2773 -84.5317 66 73 63 0.609608 0.161856 0.776003 
-27.2663 16.9648 -84.1183 94 99 94 0.301171 0.321942 0.89758 
-25.029 15.1238 -85.1664 149 140 150 0.30368 0.39219 0.868312 
-26.4424 15.0609 -84.0511 122 118 108 0.447756 -0.123666 0.885563 
-24.1983 15.6842 -85.7639 92 85 96 0.424697 0.0926863 0.900579 
-27.2964 16.5525 -84.0002 109 118 107 0.384266 0.0855433 0.919251 
-26.0265 17.7274 -84.8383 116 109 116 0.393938 0.130378 0.909843 
-25.7444 11.4379 -84.1293 113 108 113 0.194903 -0.312686 0.929645 
-24.4343 15.3086 -85.6458 129 121 130 0.373564 0.213673 0.902659 
-22.9038 12.8811 -86.0421 132 127 139 0.452968 -0.0227152 0.891237 
-26.4283 13.8802 -84.1727 108 102 108 0.35381 0.128032 0.926513 
-26.2421 14.5365 -84.4872 163 155 156 0.406718 0.140297 0.902716 
-24.6661 11.7289 -84.8745 133 129 123 0.407303 0.0690115 0.910682 
-25.6299 14.8678 -84.9505 145 142 141 0.480863 -0.0395043 0.875906 
-25.1307 18.0593 -85.6361 127 118 128 0.360404 0.215663 0.907523 
-25.3684 14.3511 -85.021 101 94 102 0.448369 0.111739 0.886837 
-27.3748 15.8739 -83.772 107 108 107 0.383309 0.0853302 0.91967 
-25.2139 14.4299 -85.3934 78 75 80 0.535844 -0.0721056 0.841233 
-24.7326 13.9537 -83.6189 147 149 132 0.413705 -0.178546 0.892731 
-26.9135 16.9951 -84.252 112 133 108 0.234253 0.0252272 0.971848 
-23.8277 16.7918 -86.0641 89 81 93 0.456976 0.121006 0.88121 
-26.2489 13.1373 -84.2834 99 97 101 0.428135 -0.144621 0.892068 
-25.8661 15.1378 -84.7022 117 108 109 0.464941 0.1216 0.876951 
-23.0856 13.1535 -86.0876 122 118 129 0.241336 0.459905 0.854543 
-27.2924 15.5246 -84.2072 119 117 119 0.293752 0.177906 0.93918 
-27.6756 15.3603 -83.9176 90 82 89 0.468494 0.143594 0.871719 
-27.3536 16.2719 -83.8575 104 110 104 0.233238 0.437886 0.868249 
-27.4459 16.7084 -84.0359 98 111 94 0.462988 0.20827 0.861548 
-23.741 16.1831 -85.9939 80 73 85 0.466833 0.0173892 0.884174 
-23.3547 11.6346 -85.9202 90 88 93 0.43337 -0.309106 0.846548 
-25.8303 16.2246 -85.0026 45 49 46 0.416784 0.14367 0.89758 
-23.7491 15.9798 -86.0553 129 119 133 0.421914 0.101649 0.900919 
-23.7739 16.0977 -86.0546 85 78 90 0.451026 0.10257 0.886597 
-23.3506 14.3711 -86.0976 105 99 111 0.41752 0.101259 0.903008 
-24.9035 12.6279 -84.7265 111 110 98 0.47104 0.0621607 0.879919 
-24.6472 14.9711 -85.3831 132 123 134 0.47037 0.128021 0.873134 
-24.83 13.0465 -83.9674 109 113 90 0.364491 -0.0622948 0.929121 
-24.8943 12.0565 -83.9849 120 114 108 0.115359 -0.468555 0.87587 
-24.1153 12.3919 -85.3609 86 82 91 0.390423 0.13294 0.910987 
-24.6217 13.7751 -85.3969 92 92 88 0.365731 0.16239 0.916445 
-23.7281 13.4558 -85.8022 54 52 64 0.373242 0.0299113 0.927252 
-25.698 17.4203 -85.3673 122 116 119 0.366817 0.143658 0.919134 
-24.275 14.1863 -85.9805 133 130 137 0.538382 -0.216273 0.814476 
-24.5035 15.8878 -85.6914 119 109 121 0.423805 0.315137 0.849163 
-24.8199 17.6307 -85.6358 147 140 149 0.394799 0.133473 0.909021 
-24.8216 18.3278 -86.1682 98 92 101 0.39943 0.071762 0.913951 
-26.3608 17.8583 -84.6965 101 98 105 0.440881 -0.041796 0.896592 
-25.7473 15.7492 -84.6888 78 72 75 0.500118 0.126117 0.856724 
-27.5529 17.0947 -84.0436 79 81 80 0.437259 0.10826 0.892796 
-23.6618 14.4344 -86.152 107 100 112 0.357267 0.158318 0.920487 
-24.9164 14.0014 -85.6404 110 108 113 0.419096 0.0926714 0.9032 
-27.7353 17.242 -84.0781 119 115 120 0.493284 0.125853 0.860716 
-23.9363 13.5022 -85.4269 46 44 53 0.232699 0.25778 0.937763 
-23.9482 13.749 -83.7844 86 93 72 0.582352 0.225176 0.781128 
-25.4914 14.1123 -84.8996 95 92 91 0.527969 0.0260556 0.848864 
-24.2965 11.4322 -84.6906 115 108 112 0.470255 -0.370747 0.800879 
-25.9003 13.5682 -84.5489 124 119 121 0.347048 0.301976 0.887901 
-25.812 12.3483 -84.0586 136 133 131 0.437259 0.10826 0.892796 
-27.4963 16.583 -84.0712 65 69 70 0.373645 -0.131956 0.918138 
-24.8243 16.8032 -85.6752 93 86 96 0.430783 0.122879 0.894051 
-24.4679 16.0408 -86.0164 95 90 97 0.393783 0.157797 0.905558 
-24.4858 11.5288 -84.8282 116 108 110 0.432431 0.0931603 0.896842 
-23.6999 14.9059 -85.8824 80 75 85 0.46718 0.121438 0.875783 
-25.431 16.9174 -85.6804 155 152 153 0.460409 0.0337544 0.887065 
-24.3926 14.5325 -85.4841 86 81 87 0.438514 0.0816161 0.895011 
-23.6178 14.2062 -85.9031 86 82 94 0.430497 0.0872069 0.898369 
-25.8065 17.8915 -85.2264 101 93 102 0.355853 0.2387 0.903544 
-24.7246 13.9033 -83.2614 154 156 139 0.451026 0.10257 0.886597 
-27.1129 14.0739 -83.7656 102 93 103 0.424199 0.10153 0.899859 
-24.7659 11.2971 -84.6707 101 95 97 0.295754 -0.115384 0.94827 
-25.5106 18.006 -85.4065 102 93 102 0.358507 0.292506 0.886517 
-25.5321 16.8856 -85.5579 118 116 117 0.460409 0.0337544 0.887065 
-24.9814 15.3938 -85.5838 141 138 138 0.382902 0.151183 0.911334 
-26.0359 17.9839 -85.1945 121 113 121 0.343401 0.266762 0.900507 
-26.833 15.103 -84.0118 137 133 119 0.483602 0.00399671 0.875279 
-25.4941 13.1265 -84.2222 157 156 148 0.257983 0.447273 0.856383 
-27.2288 13.6601 -84.0189 75 73 79 0.394361 0.0975596 0.913762 
-24.7234 13.5834 -85.0901 95 98 89 0.386135 0.154171 0.909468 
-25.3183 16.7109 -85.6728 121 118 122 0.379507 0.150956 0.912791 
-27.098 16.2121 -83.9139 107 122 103 0.417317 -0.00650027 0.908738 
-25.9575 18.2061 -85.2952 107 99 108 0.341434 0.270487 0.900144 
-26.1781 11.4973 -83.9066 100 93 102 0.422798 0.0867631 0.902061 
-26.5342 16.2534 -84.4842 73 85 68 0.583745 -0.135167 0.800607 
-24.5998 13.4682 -84.2356 127 133 110 0.596076 0.141923 0.790286 
-25.4443 17.837 -85.409 102 93 102 0.408652 0.0833704 0.908875 
-25.5313 17.6039 -85.3432 101 93 100 0.35074 0.234312 0.906686 
-25.0878 16.2768 -85.7353 109 106 109 0.38336 0.179476 0.905993 
-25.6366 11.6267 -84.212 125 121 123 0.483003 -0.0367354 0.874848 
-26.6672 12.6356 -84.0478 77 72 82 0.4329 -0.199459 0.879098 
-23.8514 14.4183 -86.1111 104 101 108 0.460442 0.0255055 0.887323 
-25.2373 17.7156 -85.5318 94 85 94 0.391435 0.0772035 0.916961 
-23.5366 14.8985 -86.1187 103 97 107 0.442187 0.030726 0.896397 
-25.793 16.6382 -85.3986 121 123 119 0.399072 0.161631 0.902561 
-23.6194 14.9916 -85.863 84 79 90 0.591731 0.158096 0.790481 
-25.1707 12.4441 -83.7312 155 153 141 -0.116383 0.860658 0.495704 
-23.091 11.8617 -85.9355 112 104 117 0.384812 0.048928 0.921697 
-22.7545 12.8059 -86.1096 128 122 134 0.369374 0.14078 0.918555 
-25.971 15.982 -84.707 48 52 48 0.479613 0.125304 0.868488 
-25.797 12.8193 -84.5038 135 134 128 0.420201 -0.143865 0.895954 
-24.99 14.6989 -85.2612 57 52 56 0.506957 0.119879 0.853595 
-26.0199 15.0116 -84.2943 84 78 75 0.581118 -0.180556 0.793537 
-25.6665 11.7116 -84.1397 129 124 124 0.168226 -0.360485 0.91747 
-24.1765 15.5858 -85.7792 98 88 101 0.418568 0.101513 0.902494 
-25.6497 14.4043 -84.873 117 109 116 0.421914 0.101649 0.900919 
-24.7573 11.5329 -84.643 107 100 101 0.642977 0.279208 0.713178 
-25.6176 17.865 -85.3201 118 110 118 0.422897 0.15339 0.893101 
-24.8999 12.3996 -84.9007 114 109 105 0.368653 0.177921 0.912381 
-23.488 13.1651 -85.6317 56 56 64 0.330883 0.168932 0.928428 
-24.311 16.1117 -85.7598 101 94 104 0.390823 0.0857904 0.916459 
-25.3021 14.3397 -85.0794 111 103 111 0.398944 0.124583 0.908473 
-24.1869 14.0623 -83.4918 144 149 126 0.61507 -0.0734627 0.785043 
-26.6089 15.9422 -84.1263 80 86 71 0.550678 -0.159682 0.819302 
-28.1655 17.2934 -83.6704 86 78 89 0.394799 0.133473 0.909021 
-24.5076 13.6325 -83.2793 132 138 118 0.35242 0.570043 0.742193 
-27.1422 17.476 -84.6396 102 102 108 0.378186 0.00127335 0.925729 
-24.0205 16.1621 -85.7451 104 94 107 0.311139 0.293444 0.903926 
-26.0237 12.5892 -84.4902 114 112 109 0.576891 0.0463197 0.815507 
-26.063 17.0315 -85.0307 91 89 89 0.535051 0.0458615 0.843574 
-23.2638 14.1921 -86.0779 111 106 118 0.338815 0.133057 0.931397 
-27.5201 17.3092 -84.2522 87 84 91 0.518031 0.235189 0.822393 
-25.7389 14.0618 -84.8181 121 114 120 0.421914 0.101649 0.900919 
-26.8577 12.6543 -84.0719 124 121 129 0.418297 0.00912174 0.908265 
-23.7355 14.0494 -85.6395 85 81 92 0.487607 0.122261 0.86446 
-23.3486 14.8046 -86.213 119 112 124 0.44321 0.0334751 0.895793 
-25.8737 17.0837 -85.1948 96 92 94 0.449639 0.108534 0.886592 
-26.7566 15.5425 -84.0407 111 112 98 0.13486 0.325572 0.93585 
-26.4211 12.9804 -84.4299 138 136 142 0.121211 -0.00327598 0.992621 
-25.9562 14.5757 -84.6324 127 120 122 0.522996 -0.114451 0.844616 
-24.9267 11.4482 -84.5914 139 137 132 0.0947588 -0.00106471 0.9955 
-24.0115 13.0997 -84.1722 132 137 117 0.488119 0.368908 0.790978 
-27.2297 17.1353 -84.3738 97 97 98 0.323849 0.354258 0.877282 
-25.8244 12.5937 -84.6242 129 130 128 0.212928 0.0297386 0.976615 
-24.2743 13.7851 -85.5072 101 100 104 0.420975 0.0986443 0.901693 
-24.6913 12.8154 -84.8088 90 91 82 0.571469 -0.147717 0.807219 
-27.0704 17.5835 -84.5621 105 99 107 0.300682 0.342568 0.890077 
-25.9669 12.9902 -84.6542 128 129 130 0.448369 0.111739 0.886837 
-27.4212 16.9474 -83.9338 102 111 103 0.469022 0.0394251 0.882306 
-25.524 13.508 -84.5153 158 158 145 0.410064 0.168342 0.896386 
-23.6778 15.4871 -85.9804 107 101 113 0.425757 0.0929177 0.900054 
-26.0645 12.2857 -84.3764 79 76 82 0.425156 -0.0839304 0.90122 
-26.6977 17.0187 -84.3548 90 104 88 0.407466 0.131122 0.903758 
-26.2573 11.8394 -84.1596 97 90 98 0.349193 0.148859 0.925152 
-25.3621 11.7883 -84.1503 109 105 104 0.419096 0.0926714 0.9032 
-25.5763 11.5001 -84.3639 146 144 141 0.0686145 -0.0137229 0.997549 
-27.5098 15.6574 -83.9673 99 97 99 0.45439 0.102695 0.884864 
-24.683 14.4052 -85.4413 79 74 79 0.418448 0.104265 0.902236 
-25.5715 17.7223 -85.3229 74 68 76 0.416277 0.0838049 0.905368 
-23.7154 16.1615 -86.124 135 126 138 0.485522 0.11601 0.866493 
-24.6889 13.4797 -83.1589 139 144 125 0.21346 0.662194 0.718286 
-26.9917 14.1978 -84.1009 130 122 129 0.531328 -0.2159 0.819194 
-23.8269 13.2209 -85.7488 37 35 46 0.370937 0.0351414 0.927993 
-26.97 17.7408 -84.7121 73 71 77 0.432801 0.10785 0.895015 
-24.3802 14.8433 -85.5494 100 93 101 0.397891 0.0801214 0.913927 
-23.8084 15.0397 -85.8583 91 86 96 0.440945 0.142194 0.886199 
-24.8137 17.3935 -85.9712 143 139 144 0.371126 0.144249 0.91731 
-26.0313 12.9202 -84.3828 145 141 143 0.392122 0.13914 0.90933 
-28.4114 17.4305 -83.867 102 94 104 0.642327 0.175458 0.746076 
-28.1918 17.2855 -84.0282 128 120 131 0.588334 0.167879 0.790999 
-28.2731 17.4918 -84.0257 97 89 99 0.63071 0.185684 0.753476 
-25.58 17.392 -85.3033 98 91 95 0.434798 0.0902935 0.89599 
-27.9612 17.3384 -84.122 113 106 116 0.593683 0.157814 0.789072 
-24.5072 13.398 -85.2294 119 123 103 0.386135 0.154171 0.909468 
-24.0368 14.1064 -83.707 142 148 123 0.25121 0.00119057 0.967932 
-28.1979 17.4627 -84.0092 109 101 112 0.602471 0.145012 0.784857 
-25.1884 11.6653 -84.5061 93 85 84 0.423279 0.176002 0.88874 
-28.196 17.1952 -83.9906 93 85 96 0.604847 0.161393 0.779815 
-26.8672 15.0915 -83.9315 137 134 124 0.411017 0.0805648 0.908061 
-27.2807 13.9719 -83.937 126 124 131 0.202786 -0.297885 0.932814 
-26.0239 13.8044 -84.3671 123 120 119 0.352424 -0.101271 0.930345 
-26.6245 17.8044 -84.5882 96 97 99 0.446277 -0.148759 0.882444 
-26.204 13.1824 -84.333 101 99 103 0.352001 0.0243201 0.935683 
-24.5047 14.1339 -84.4626 136 139 121 0.183015 0.699762 0.690535 
-22.7877 12.4008 -86.5206 147 143 153 -0.258779 0.566176 0.78261 
-25.1555 13.5328 -83.8592 148 150 133 0.0792013 0.371844 0.924911 
-25.5414 17.5047 -85.3562 94 88 95 0.405186 0.0222918 0.913963 
-24.8179 15.7673 -85.4572 103 96 106 0.40995 0.264728 0.872846 
-27.4621 17.12 -84.275 90 89 93 0.598153 0.171117 0.782899 
-24.7684 11.5173 -84.6149 100 94 95 0.342666 -0.207894 0.916166 
-25.9244 12.3163 -83.6501 82 78 85 0.00413368 -0.624185 0.781265 
-25.7202 16.3673 -84.9792 68 67 70 0.466666 0.106383 0.878012 
-27.8811 16.7193 -84.0054 101 96 105 0.559233 0.186411 0.807781 
-26.4338 17.1665 -85.0347 147 152 144 0.437995 0.16734 0.883265 
-24.8034 11.8274 -84.8294 139 137 126 0.377727 0.0852933 0.92198 
-24.6799 14.259 -85.7692 105 103 108 0.437161 0.0585606 0.897475 
-27.5703 15.834 -83.9426 115 113 117 0.45439 0.102695 0.884864 
-25.5443 14.584 -84.9702 94 85 93 0.511813 0.0747275 0.855841 
-26.5957 17.4517 -84.524 94 97 94 0.571429 0.15748 0.8054 
-27.0343 14.0067 -84.0493 108 100 109 0.495318 -0.203246 0.844601 
-25.2476 11.7135 -84.3063 149 142 138 0.457965 -0.124121 0.880263 
-24.3381 13.9864 -83.6349 134 139 116 0.590325 0.15772 0.791606 
-25.5648 13.3118 -84.4425 152 153 137 0.304209 0.13926 0.942371 
-25.3522 15.5369 -85.2448 159 152 159 0.397225 0.326126 0.85782 
-26.7703 14.558 -84.0972 132 125 122 0.547052 -0.176323 0.818318 
-24.2873 12.8757 -85.2182 92 95 84 0.101542 0.699023 0.707853 
-26.8208 12.5473 -84.088 89 85 93 0.418297 0.00912174 0.908265 
-24.7178 15.5057 -85.5919 109 99 111 0.403581 0.0116792 0.91487 
-27.6181 15.7754 -83.9746 120 118 122 0.430143 0.163657 0.887803 
-26.1505 13.781 -84.4359 89 82 89 0.407374 -0.022268 0.91299 
-27.4285 17.566 -84.4277 110 108 111 0.452153 0.102826 0.885994 
-25.3719 13.8019 -85.2138 112 110 113 0.418926 0.172499 0.891485 
-25.0044 17.6285 -85.5474 131 123 131 0.391435 0.0772035 0.916961 
-26.5902 15.5233 -84.2008 118 129 111 0.148363 0.606939 0.780778 
-24.8738 16.1036 -85.8414 113 111 116 0.393783 0.157797 0.905558 
-23.6861 12.5023 -85.6465 75 69 80 0.368609 0.0790834 0.926214 
-23.8095 13.4813 -83.9199 135 141 119 0.622964 -0.0409659 0.781177 
-25.6372 13.7635 -84.7673 120 115 117 0.171795 0.609643 0.773836 
-26.8564 15.7335 -83.9828 113 112 105 0.637746 -0.279713 0.717664 
-25.734 13.634 -84.6911 125 121 121 0.350753 0.288065 0.891062 
-26.8299 16.823 -84.3698 65 85 57 0.193195 0.561331 0.804726 
-27.1639 15.5295 -84.182 131 129 121 0.453725 0.090745 0.886509 
-24.8928 17.0776 -85.8928 110 107 111 0.382902 0.151183 0.911334 
-27.9108 16.8152 -83.9242 68 66 73 0.237488 0.0377545 0.970656 
-25.4274 12.4078 -83.9827 125 123 116 0.364665 0.035039 0.930479 
-27.1453 14.8551 -83.8582 148 143 139 0.49466 -0.0257494 0.868705 
-24.0712 16.1308 -85.9273 95 88 99 0.435656 0.0960393 0.894975 
-27.3104 17.3352 -84.2713 93 100 94 0.506166 0.318932 0.801298 
-23.901 15.9174 -85.9888 118 108 121 0.417216 0.086748 0.904657 
-26.2234 11.8001 -84.3036 96 93 100 0.268333 -0.178435 0.946657 
-23.566 13.3266 -85.6676 51 49 61 0.553553 -0.0262282 0.832401 
-24.92 18.2327 -85.7741 84 75 85 0.299896 0.291119 0.908467 
-24.4279 13.1002 -85.3046 73 73 67 0.42613 0.141093 0.893591 
-26.2469 16.5006 -84.6802 88 93 83 0.480268 0.137841 0.866223 
-22.9139 12.6351 -86.0996 161 153 165 0.462132 0.105994 0.880454 
-25.2643 14.737 -85.1231 96 87 96 0.480425 0.0977856 0.871567 
-24.8778 17.5262 -85.8588 100 95 101 0.371126 0.144249 0.91731 
-26.2181 15.1573 -84.3338 116 108 100 0.554373 0.00681048 0.832241 
-25.1673 14.9655 -85.1743 141 132 141 0.483792 0.0978934 0.869691 
-25.0138 14.4436 -85.2799 114 106 115 0.482047 0.0480674 0.874826 
-27.0309 14.2927 -83.8643 95 88 96 0.430879 0.154194 0.889139 
-26.3656 13.813 -84.5451 86 84 90 0.456748 0.0997818 0.883982 
-27.5936 15.8042 -84.0295 115 113 116 0.465506 0.106118 0.87866 
-23.9781 13.5008 -83.6788 119 127 97 0.339754 -0.243515 0.908442 
-26.2531 15.9378 -84.302 86 90 77 0.504598 0.129421 0.853599 
-25.9089 16.6125 -84.9121 61 59 59 0.285024 0.353669 0.890887 
-24.9611 15.1563 -85.2604 87 80 88 0.487308 -0.0828564 0.86929 
-26.2311 16.1005 -84.5395 53 55 49 0.576995 -0.0151479 0.816607 
-24.5001 16.6899 -85.7551 67 58 68 0.278328 0.235943 0.931056 
-27.2982 17.7977 -84.581 88 80 89 0.453036 0.643612 0.616865 
-23.6702 13.132 -85.8123 63 61 72 0.334885 0.222778 0.915545 
-26.1493 15.3463 -84.2838 115 109 103 0.663983 -0.044076 0.746448 
-27.3274 15.1332 -83.8319 124 120 118 0.479371 0.0947429 0.872483 
-26.3255 10.7787 -83.9329 73 64 75 0.465506 0.106118 0.87866 
-27.1806 17.6293 -84.5402 68 61 70 0.532946 0.261003 0.804889 
-24.9778 17.6833 -85.6448 74 68 76 0.321653 0.294972 0.899739 
-27.51 16.0172 -83.889 105 105 106 0.404816 0.0329655 0.913804 
-23.9665 13.984 -85.7082 92 89 99 0.422425 0.092795 0.901635 
-24.6576 12.9819 -84.9137 71 76 59 0.520531 -0.120346 0.845319 
-25.0189 11.3774 -84.6001 145 144 138 0.0947588 -0.00106471 0.9955 
-24.4862 17.4473 -85.8333 94 85 96 0.409938 0.0979987 0.906833 
-26.7235 13.5546 -84.2768 87 83 91 0.447247 0.111459 0.887439 
-23.1475 13.9395 -86.1225 73 69 81 0.432832 0.0583441 0.899585 
-26.9208 17.8052 -84.813 90 88 93 0.394403 -0.0275165 0.918526 
-24.5614 15.2509 -85.475 116 107 119 0.341036 0.287423 0.895032 
-25.8099 11.0244 -84.2813 106 97 105 0.459939 0.130388 0.878325 
-25.3125 16.8169 -85.3545 113 106 113 0.37963 0.114579 0.918015 
-26.8184 13.5149 -84.135 103 101 107 0.319205 0.00372613 0.947678 
-25.169 16.8689 -85.457 121 114 121 0.386135 0.154171 0.909468 
-24.8912 11.9903 -84.7295 75 69 70 0.371474 0.0568447 0.926702 
-27.1517 15.589 -83.7119 134 135 127 0.451387 0.0936314 0.887402 
-25.7078 11.1689 -84.2773 102 96 104 0.505392 -0.142096 0.85111 
-24.2901 15.8644 -85.6953 96 87 99 0.427597 0.0783699 0.900566 
-25.0012 16.6248 -85.5155 84 76 85 0.371929 0.147368 0.916489 
-25.2811 13.2857 -83.909 159 162 145 0.0755458 0.221684 0.972188 
-24.4552 11.6309 -84.7934 99 92 96 0.5065 -0.193883 0.840159 
-27.1618 15.1754 -83.7234 133 127 123 0.120972 -0.215202 0.969048 
-26.2932 12.0774 -84.2371 91 87 96 0.405353 0.115616 0.90682 
-27.8846 16.0573 -83.8765 77 74 83 0.417185 0.178794 0.891061 
-23.5467 12.9274 -85.7331 44 42 53 0.385561 0.221368 0.895734 
-26.2143 15.0187 -84.1782 143 135 127 0.528759 -0.335899 0.779478 
-24.5294 11.848 -85.1844 115 115 109 0.221128 0.0549765 0.973694 
-26.7387 14.3489 -84.1279 115 108 112 0.449352 0.114819 0.885946 
-24.4834 15.9823 -85.6476 89 82 92 0.417678 0.146829 0.896653 
-22.9454 12.0874 -86.0339 137 128 141 0.44938 0.335852 0.827805 
-26.5098 15.1194 -83.9883 158 160 142 0.0701281 0.599667 0.797171 
-26.1258 16.1098 -84.8703 48 50 46 0.459836 0.187779 0.867923 
-25.9731 15.9562 -84.8751 55 57 56 0.414709 0.348982 0.840374 
-26.0129 17.0163 -84.8461 71 67 67 0.303207 0.336067 0.891698 
-26.1372 14.0465 -84.3862 98 93 96 0.352042 0.133914 0.926355 
-25.8299 16.0224 -85.0224 45 46 47 0.441389 0.295808 0.847156 
-26.2033 16.4529 -84.7123 80 83 77 0.450488 0.227504 0.863309 
-26.4065 16.241 -84.5603 68 80 63 0.457678 0.214583 0.862835 
-24.5507 12.6124 -84.9977 81 79 76 0.457965 0.124121 0.880263 
-23.4804 14.3347 -85.9168 91 87 98 0.233154 0.370994 0.89889 
-26.8033 14.5031 -84.0216 130 123 124 0.342979 0.0670188 0.936949 
-26.6188 16.1207 -84.0844 90 114 87 0.543696 0.00406755 0.839272 
-25.3315 11.9139 -84.0384 128 123 121 0.419096 0.0926714 0.9032 
-23.4781 13.767 -85.8738 56 53 65 0.533712 0.0750312 0.842331 
-26.339 13.5843 -84.3102 105 97 106 0.416745 0.128555 0.899887 
-24.2611 15.8959 -86.0191 134 130 137 0.393783 0.157797 0.905558 
-27.578 16.2108 -83.8673 91 90 92 0.406134 0.0249726 0.913472 
-23.1856 14.2769 -86.0949 86 82 93 0.51593 0.133002 0.846243 
-25.6462 14.8034 -85.0983 149 146 144 0.533526 -0.191948 0.823715 
-26.3868 17.6731 -84.8969 91 89 93 0.499933 0.128968 0.856408 
-25.7921 11.6196 -84.1337 119 115 120 0.297466 -0.339321 0.892399 
-24.7407 11.3719 -84.7064 120 113 116 0.266581 -0.0513137 0.962445 
-23.7246 13.3451 -85.693 48 46 57 0.245416 0.507811 0.825772 
-25.7887 15.0308 -84.5334 89 83 84 0.613807 0.0208778 0.78918 
-24.5422 11.469 -85.0617 120 115 111 0.414943 -0.0143987 0.909733 
-27.2684 16.6896 -83.7537 87 102 87 0.43743 0.0814145 0.895559 
-26.5413 17.4373 -84.802 86 85 86 0.333214 0.248819 0.909427 
-26.7461 12.3328 -84.1031 80 76 84 0.388324 0.0912902 0.91699 
-26.6667 15.1965 -84.0011 112 114 97 0.0583214 0.596016 0.800852 
-26.2222 12.0947 -84.245 88 84 92 0.376714 0.260573 0.888925 
-26.1758 13.0687 -84.3803 122 117 122 0.431012 0.0990351 0.896895 
-26.048 14.6909 -84.4406 107 101 101 0.411519 0.0223509 0.911127 
-24.6242 16.0293 -85.616 101 91 103 0.399614 0.180331 0.898771 
-24.7221 16.3409 -85.6189 108 99 110 0.377019 0.120149 0.91838 
-25.3138 17.3063 -85.4152 97 91 97 0.367741 0.263523 0.891809 
-24.0384 12.9328 -85.2721 45 44 50 0.454005 0.111733 0.883966 
-26.5224 11.6895 -84.1633 116 113 121 0.163354 0.0751192 0.983703 
-24.2365 13.5001 -83.5522 125 130 106 0.333262 0.616128 0.713668 
-23.0706 11.7153 -85.9973 153 144 157 0.379663 0.0599468 0.923181 
-24.3381 14.3525 -85.4539 115 108 119 0.320362 0.481332 0.815897 
-26.1861 13.428 -84.3242 99 97 99 0.378486 0.0461568 0.924455 
-24.5867 13.7183 -84.4939 124 128 110 -0.26985 0.947866 0.169504 
-25.1379 12.6996 -83.9635 152 153 137 0.611196 -0.219284 0.760496 
-25.5321 16.9239 -85.3029 112 107 111 0.377064 0.184948 0.907534 
-26.6244 13.592 -84.3365 114 111 118 0.448369 0.111739 0.886837 
-22.7956 11.9582 -86.02 107 97 111 0.366612 0.213011 0.905661 
-24.4542 15.7913 -85.9284 125 120 127 0.393783 0.157797 0.905558 
-26.3663 11.6839 -84.0684 108 102 112 0.475631 0.13734 0.868857 
-27.4213 17.2981 -84.402 91 95 93 0.599574 0.171524 0.781723 
-24.0812 14.1936 -83.866 138 142 121 0.0347382 0.82399 0.565538 
-25.5378 13.7154 -84.8355 92 87 89 0.152241 0.637602 0.755174 
-23.7816 13.9939 -83.7742 105 110 95 0.302203 -0.403449 0.863656 
-25.4115 16.5879 -85.309 112 107 113 0.392694 0.106096 0.913529 
-24.0742 13.5452 -85.512 49 45 56 0.324398 0.449769 0.83215 
-23.5492 14.6619 -85.8895 101 97 107 0.416028 0.107138 0.903018 
-25.1647 17.3578 -85.5009 93 87 93 0.381758 0.173006 0.907926 
-24.0036 12.5617 -85.4171 58 54 64 0.392274 0.136382 0.909682 
-24.5453 15.2389 -85.3738 122 113 124 0.39871 0.22974 0.887834 
-24.9462 16.5948 -85.5123 78 70 79 0.454044 0.00131607 0.890978 
-25.2673 12.218 -84.3799 121 117 111 0.362127 -0.0270629 0.931736 
-26.1698 13.8108 -84.4672 95 92 93 0.381758 0.0299674 0.923776 
-26.6278 13.7734 -83.8792 87 80 88 0.469022 -0.0394251 0.882306 
-24.4216 13.5812 -85.4602 74 73 75 0.34023 0.103548 0.934624 
-25.1066 13.7168 -83.1788 125 126 118 0.195583 0.63911 0.743832 
-25.1372 12.3404 -84.1915 126 123 115 0.511649 -0.161652 0.843851 
-27.4952 16.26 -83.7174 75 75 80 -0.0324191 -0.734363 0.677982 
-25.2613 16.7555 -85.4114 95 88 95 0.451755 0.111877 0.8851 
-24.6848 14.574 -85.3394 79 71 81 0.490131 0.116424 0.863838 
-24.417 12.9432 -84.2666 110 115 92 0.461922 0.112283 0.879784 
-22.6059 12.4796 -86.1344 151 141 155 0.472249 0.0479093 0.880162 
-27.3226 17.5158 -84.5263 109 109 111 0.506761 0.129231 0.852345 
-24.1226 11.4732 -85.304 108 101 105 0.359012 0.0760731 0.930228 
-25.4702 15.0752 -84.9264 149 142 148 0.348487 0.271375 0.897169 
-27.1479 15.7429 -83.9034 127 134 121 0.34868 0.163837 0.922811 
-24.4999 12.2054 -85.0254 104 100 103 0.451417 -0.0559157 0.89056 
-25.3581 16.5542 -85.6282 133 131 133 0.379507 0.150956 0.912791 
-23.8239 11.6503 -85.3808 119 112 120 0.356615 0.090163 0.92989 
-23.3338 12.0584 -86.0016 125 124 127 0.415679 -0.217455 0.883133 
-23.4137 14.6499 -86.1689 98 94 106 0.382879 0.0600334 0.921846 
-22.7165 12.7543 -86.1633 87 81 93 0.498455 -0.240792 0.832803 
-24.3091 14.1512 -85.5482 100 97 102 0.325794 0.0584093 0.943635 
-23.947 11.9848 -85.3806 142 139 139 0.362156 0.0788458 0.928777 
-23.5827 11.9313 -85.5304 98 90 99 0.360581 0.0958848 0.927786 
-27.6022 17.4824 -84.3434 99 98 105 0.317923 0.0635845 0.945982 
-26.1895 13.4359 -84.4475 83 79 81 0.368811 -0.223036 0.902349 
-26.2211 13.0557 -84.5181 98 97 102 0.453013 0.108667 0.884857 
-23.6748 12.9245 -85.7536 58 55 65 0.365978 0.150037 0.918449 
-26.3292 11.2764 -84.0535 96 90 101 0.477547 0.0650571 0.876194 
-26.4178 15.6425 -84.1134 147 141 130 0.559053 -0.140875 0.817077 
-27.7215 16.7824 -84.1147 76 77 80 0.485682 0.113182 0.866777 
-24.484 11.563 -85.1153 103 102 99 0.204225 0.0394118 0.97813 
-26.8744 16.0535 -83.7667 97 115 97 0.563947 -0.220944 0.795706 
-22.7742 12.6041 -86.0763 130 121 134 0.28594 0.246108 0.926104 
-23.6564 14.1561 -85.6869 95 89 102 0.18567 0.652145 0.735006 
-23.6986 14.9506 -85.9596 92 86 96 0.623694 0.168443 0.763304 
-22.7687 12.4139 -86.1022 133 123 137 0.229137 0.397663 0.88846 
-23.7657 15.0322 -85.8761 91 86 97 0.556136 0.0549096 0.829276 
-24.6744 16.2585 -85.6353 91 85 95 0.425381 0.135155 0.894865 
-22.8593 12.1891 -86.0299 99 89 103 0.20425 0.372286 0.905365 
-22.9747 12.5299 -86.0011 139 131 143 0.227347 0.374023 0.899122 
-24.0823 12.3212 -85.3827 122 121 122 0.36629 0.104849 0.924575 
-23.5217 13.6813 -85.9154 60 56 68 0.352823 -0.0269429 0.935302 
-26.2153 12.5371 -84.3724 108 106 111 0.416953 -0.140882 0.897943 
-23.7541 14.2163 -85.741 93 88 99 0.376017 0.0795161 0.923195 
-24.1442 17.5586 -86.059 107 97 109 0.420858 0.101395 0.901442 
-25.9483 12.8309 -84.5416 131 131 122 0.500163 0.119635 0.857627 
-26.7375 13.9152 -84.3453 112 109 113 0.448369 0.111739 0.886837 
-23.1878 14.4414 -86.0968 98 93 105 0.431335 0.113805 0.894985 
-25.8115 16.9067 -85.4127 121 121 120 0.438514 0.0816161 0.895011 
-23.4673 13.4585 -85.8875 61 58 70 0.375114 -0.0167577 0.926827 
-26.5472 13.3441 -84.2038 95 90 96 0.298939 0.222433 0.927986 
-23.4853 13.5432 -85.8538 51 48 60 0.101747 0.712229 0.694534 
-24.3741 14.6314 -85.2698 109 101 111 0.182921 0.671736 0.717851 
-26.9379 15.4684 -84.0634 140 138 127 0.121677 0.35136 0.9283 
-26.5768 16.84 -84.3765 72 92 68 0.150371 0.477392 0.865728 
-23.9044 12.8291 -85.5722 45 45 50 0.218324 0.420311 0.880723 
-23.6131 14.7222 -85.9158 103 97 107 0.399755 0.142669 0.905451 
-24.2706 13.4101 -84.4616 113 120 92 0.553531 -0.47995 0.680626 
-23.2099 14.4166 -86.2541 113 107 119 0.37411 0.169274 0.911805 
-27.0755 16.4111 -83.5806 94 109 95 0.550405 -0.380547 0.743128 
-27.2675 17.6894 -84.4034 120 117 122 0.515913 0.126435 0.847259 
-25.9249 16.2203 -84.7461 56 56 58 0.487897 0.31737 0.813162 
-24.038 13.3973 -83.7388 139 146 118 0.618106 -0.0613823 0.783695 
-24.347 15.0826 -85.542 109 101 112 0.367347 0.216343 0.904573 
-24.6211 15.3605 -85.4677 116 106 118 0.348487 0.271375 0.897169 
-24.4721 15.4156 -85.5511 107 97 110 0.366612 0.213011 0.905661 
-25.4362 15.3475 -85.1989 142 139 143 0.374344 0.147214 0.91553 
-24.1956 15.1393 -85.6167 103 94 106 0.367347 0.216343 0.904573 
-24.9207 16.4752 -85.4591 112 104 114 0.423747 0.0897185 0.901326 
-26.873 16.0893 -84.0581 91 115 88 0.541808 0.143203 0.828213 
-23.5462 15.3556 -86.0538 59 54 65 0.422898 0.0840285 0.902273 
-27.2986 15.7495 -84.0453 131 128 127 0.31957 0.0582213 0.945772 
-25.1174 12.2046 -84.4687 93 89 84 0.631801 0.178985 0.754183 
-25.9851 12.4107 -84.5438 70 70 72 0.222278 -0.00588037 0.974966 
-26.3286 15.7981 -84.2169 92 89 86 0.294859 0.00122348 0.95554 
-25.256 13.6286 -83.3508 126 127 119 0.126517 0.766543 0.629607 
-24.4712 15.3511 -85.9166 122 118 121 0.424697 0.0926863 0.900579 
-25.469 12.5781 -83.6304 129 128 121 0.479009 -0.106604 0.871313 
-23.2693 14.4467 -86.1116 84 80 91 0.514657 0.132674 0.847069 
-26.1504 16.6231 -84.7936 79 79 75 0.460533 0.118341 0.879718 
-26.156 13.7829 -84.4676 108 104 105 0.38633 0.0740354 0.919384 
-24.0036 11.4888 -85.2595 91 84 94 0.408698 0.0633954 0.910465 
-26.3242 11.7633 -84.2819 103 101 109 0.268333 -0.178435 0.946657 
-23.4662 13.3476 -85.9523 82 79 90 0.368686 0.0764186 0.926407 
-24.231 17.3365 -85.9064 71 63 75 0.404232 0.155693 0.901308 
-28.1141 16.7075 -83.9121 89 83 92 0.499933 0.128968 0.856408 
-22.5099 11.9508 -86.2399 106 99 112 0.387147 0.117948 0.914443 
-25.5591 16.2811 -85.2257 119 115 121 0.476367 0.118734 0.871193 
-24.2556 13.0062 -84.168 100 106 87 0.565675 -0.720699 0.400755 
-25.9354 16.1957 -84.915 48 47 49 0.421088 0.211283 0.882068 
-25.0587 16.5779 -85.4204 111 105 114 0.488822 0.122566 0.86373 
-25.3414 17.7039 -85.6377 100 97 101 0.371126 0.144249 0.91731 
-24.527 16.3077 -85.73 77 70 81 0.431844 0.0555035 0.900239 
-26.2024 13.3535 -84.3894 97 91 97 0.383819 0.224997 0.895578 
-27.9669 16.19 -83.8747 66 60 71 0.444977 0.196618 0.873692 
-25.9003 16.6553 -84.9559 76 73 73 0.380351 0.292461 0.877383 
-27.6842 16.8094 -84.038 93 94 94 0.353873 0.305686 0.883929 
-24.6922 13.9342 -85.403 111 109 106 0.408318 0.174581 0.89599 
-26.2086 12.015 -84.0699 113 107 115 0.289923 0.418777 0.860564 
-26.2851 13.2075 -84.2317 95 93 97 0.274272 0.234889 0.932525 
-26.5261 13.5586 -84.2409 111 105 111 0.450156 0.0967626 0.887691 
-25.846 13.4427 -84.4527 152 149 146 0.190121 0.558195 0.807634 
-25.9991 13.684 -84.6192 102 97 100 0.416659 0.0778675 0.905722 
-25.3822 13.766 -84.926 94 89 92 0.225953 0.536447 0.813124 
-27.6488 17.2138 -84.2376 123 122 128 0.397303 -0.0887446 0.913387 
-24.5366 12.2357 -84.5316 131 131 119 0.489914 -0.321853 0.810182 
-25.581 14.5162 -84.8961 133 127 129 0.46888 0.106242 0.876849 
-26.7205 12.584 -84.1206 54 51 58 0.422427 0.0117704 0.906321 
-23.7225 12.765 -85.6555 67 64 74 0.448652 0.105483 0.88746 
-25.2574 13.5092 -83.6232 152 154 140 0.0281231 0.453987 0.890564 
-26.1418 17.3507 -85.0576 117 110 116 0.344964 0.256888 0.902778 
-25.9319 17.2332 -85.1677 118 111 115 0.349541 0.208574 0.91341 
-26.6198 14.4366 -84.2239 144 136 137 0.367123 0.0820311 0.926548 
-27.2744 14.1761 -83.8806 128 120 129 0.413372 0.0777631 0.907236 
-27.7927 16.3119 -84.0208 104 100 107 0.431593 0.160224 0.887725 
-25.9506 12.6289 -84.5242 145 146 147 0.205945 0.00814472 0.97853 
-27.1954 15.1206 -83.8933 117 112 109 0.496518 0.128834 0.858412 
-26.3938 12.7095 -84.2214 129 126 131 0.376611 0.0737139 0.923434 
-27.2945 15.5907 -84.07 151 148 146 0.518557 -0.101988 0.848939 
-23.1474 12.0871 -85.8245 117 108 120 0.352042 0.133914 0.926355 
-26.4254 12.7556 -84.2029 111 107 114 0.388884 0.0142117 0.921177 
-27.1561 15.4548 -84.2679 137 137 133 0.330049 0.0888083 0.939777 
-28.0939 16.3504 -83.8764 68 65 76 0.349609 -0.127505 0.928179 
-25.1145 16.5257 -85.4201 113 105 113 0.463777 0.121296 0.877609 
-22.9467 11.9668 -85.9455 101 91 104 0.351014 0.142903 0.925401 
-23.2562 13.0827 -86.0001 56 54 64 0.267522 0.378118 0.886261 
-27.7975 16.9172 -84.1352 117 117 118 0.493284 0.125853 0.860716 
-23.8314 15.5481 -86.2336 109 105 113 0.393783 0.157797 0.905558 
-27.735 15.7096 -84.1023 97 94 101 0.30779 0.113256 0.944689 
-26.2893 13.4893 -84.3016 123 118 123 0.31928 0.224785 0.920615 
-27.2509 14.7433 -83.936 118 112 113 0.466285 0.079338 0.88107 
-23.7178 12.2567 -85.5738 108 104 111 0.312154 0.143127 0.939188 
-24.1439 13.7218 -83.5085 110 117 91 0.565385 -0.0462971 0.823527 
-26.0577 16.541 -84.9385 69 69 67 0.343585 0.166884 0.924175 
-27.0422 13.5434 -83.9928 84 78 89 0.394888 0.276875 0.876016 
-23.7731 12.4288 -85.551 74 72 77 0.308472 0.116178 0.944112 
-24.7765 15.8742 -85.4972 142 134 143 0.471947 0.115492 0.874029 
-26.8055 13.1561 -84.0943 107 105 112 0.301971 0.0186402 0.953135 
-24.3494 17.9206 -86.2188 106 102 108 0.370974 0.14699 0.916936 
-27.3452 13.9668 -83.9476 85 78 89 0.423081 0.150588 0.89349 
-23.5632 14.0858 -85.8078 100 97 108 0.379439 0.0911199 0.920719 
-26.6176 14.3863 -84.1489 111 103 105 0.445088 0.0473498 0.894234 
-25.2102 11.2974 -84.5019 133 125 127 0.233751 -0.261745 0.936403 
-24.3175 14.7456 -85.5683 102 97 104 0.394108 0.0859128 0.91504 
-24.4457 17.9111 -85.8614 114 104 115 0.325753 0.298979 0.896937 
-24.9277 17.1112 -85.5703 83 75 82 0.387599 0.0381029 0.92104 
-24.5807 11.9496 -84.9642 134 131 123 0.430569 0.0251717 0.902207 
-24.6171 16.6507 -85.6827 112 105 116 0.444491 0.0172489 0.895617 
-25.3763 16.6626 -85.3838 140 133 139 0.38628 0.30994 0.868749 
-27.8625 16.4449 -83.9716 81 79 87 0.407666 0.16854 0.897442 
-26.3441 16.4003 -83.7113 75 98 73 0.631476 -0.0676067 0.772443 
-23.4535 13.5018 -85.921 47 43 56 0.394405 -0.0491346 0.917622 
-24.4291 11.8867 -85.2139 115 117 109 0.0481417 0.350003 0.935511 
-25.2238 16.088 -85.2954 115 109 118 0.431778 0.198942 0.879767 
-26.6807 13.6076 -84.2295 91 86 94 0.293221 0.101247 0.950668 
-24.8845 14.7407 -85.3527 112 108 113 0.555603 0.0122861 0.831357 
-24.5772 15.761 -85.4901 128 118 130 0.419289 -0.00914338 0.907807 
-24.37 17.2811 -85.8629 119 109 120 0.401415 0.136622 0.905649 
-23.1388 12.3581 -86.3509 104 107 105 -0.0436266 0.272978 0.961031 
-24.2767 13.8776 -83.6398 97 103 82 0.30848 -0.302576 0.901825 
-25.1752 12.6952 -84.4223 127 126 113 0.412736 0.0196541 0.910639 
-23.4343 13.3021 -85.9887 91 88 100 0.468555 0.115359 0.87587 
-25.7829 14.3445 -84.8012 112 107 106 0.570744 -0.0668952 0.818399 
-24.0005 14.0646 -85.6183 87 80 93 0.250218 0.374587 0.892791 
-23.8019 14.3892 -85.9946 111 103 116 0.399194 0.0919107 0.912248 
-25.0031 13.7576 -83.9586 127 128 115 -0.0633783 0.912917 0.403194 
-25.7303 13.8867 -84.5148 101 98 95 0.436164 0.107989 0.893364 
-25.4818 17.5138 -85.4776 102 99 103 0.575786 -0.312753 0.755418 
-24.2819 15.6553 -85.695 111 105 115 0.39613 0.103518 0.912341 
-27.2891 17.2296 -84.4055 86 92 86 0.371222 -0.110956 0.921891 
-24.2598 14.57 -85.5852 92 89 95 0.397303 0.0887446 0.913387 
-24.5038 13.842 -83.4264 134 138 117 0.586224 0.376037 0.717591 
-23.5493 12.3643 -85.5486 54 49 59 0.379606 0.138675 0.914696 
-26.2213 17.829 -85.0872 82 78 85 0.391199 0.160747 0.906159 
-26.8874 12.4362 -83.9184 75 68 79 0.426595 0.0986588 0.899046 
-24.03 12.329 -85.4053 85 80 88 0.393127 0.139497 0.908841 
-26.3573 17.4611 -84.9694 128 121 128 0.213312 0.557066 0.802605 
-26.5523 12.1601 -84.1388 108 99 111 0.442031 0.0389632 0.896153 
-22.7659 12.1229 -86.5189 137 133 142 -0.121677 0.35136 0.9283 
-23.8338 13.0672 -85.7088 45 44 53 0.367184 0.116894 0.922774 
-26.4258 17.5648 -84.6842 121 120 122 0.56102 -0.121579 0.818826 
-24.4353 14.8971 -85.352 100 96 103 0.467841 0.270205 0.841495 
-24.4397 13.7858 -85.4085 112 111 114 0.40485 0.0303308 0.91388 
-27.8949 16.975 -84.0183 98 91 101 0.260851 0.405601 0.876039 
-24.0726 13.6482 -83.6142 103 110 86 0.6004 0.16787 0.781882 
-24.1162 12.7071 -85.4221 55 53 62 0.373686 0.141357 0.916721 
-26.1197 14.0887 -84.5126 107 101 103 0.380788 0.0740048 0.921696 
