ply
format ascii 1.0
comment Created by CloudCompare v2.11 alpha (Anoia)
comment Created 15/10/2019 14:53
obj_info Generated by CloudCompare!
element vertex 739
property float x
property float y
property float z
property uchar red
property uchar green
property uchar blue
property float nx
property float ny
property float nz
end_header
-51.9338 -17.0127 -68.5157 113 110 110 0.592565 0.16435 0.788579 
-53.2214 -15.1462 -68.1824 54 54 59 0.763173 0.208983 0.611468 
-51.8957 -16.9747 -68.579 122 119 119 0.609357 0.20209 0.76671 
-52.0506 -17.033 -68.486 90 87 86 0.592732 0.181324 0.784723 
-51.7134 -16.909 -68.6494 114 111 111 0.588244 0.177841 0.788886 
-51.8343 -16.7875 -68.5967 132 129 128 0.633634 0.178639 0.752726 
-52.1186 -16.5104 -68.4548 122 119 112 0.579666 0.204498 0.788776 
-51.4581 -17.0038 -68.7165 124 120 122 0.622629 0.175067 0.762683 
-50.3938 -15.6588 -69.2714 92 85 94 0.33745 0.328371 0.882213 
-51.8419 -16.8382 -68.6221 137 134 133 0.563017 0.234203 0.792566 
-52.0261 -16.8561 -68.5337 71 67 66 0.633634 0.178639 0.752726 
-51.7081 -14.9947 -67.7998 73 106 72 0.152761 0.691204 0.706329 
-51.8925 -16.6216 -68.587 117 115 112 0.633977 0.17568 0.753134 
-53.5436 -14.4936 -67.9811 57 54 62 0.608473 0.158535 0.777578 
-52.1552 -13.1732 -68.8092 70 67 77 0.641258 0.421398 0.641258 
-51.6307 -14.9868 -67.5609 58 84 57 0.420768 -0.357731 0.833656 
-50.5974 -16.6229 -69.1722 83 77 84 0.626779 0.110608 0.771307 
-53.5097 -15.1125 -67.8575 42 40 46 0.599246 0.154692 0.785477 
-52.0803 -16.6889 -68.5206 65 62 59 0.565067 0.183306 0.804424 
-52.2299 -15.5664 -68.5206 94 98 84 0.570445 -0.0938708 0.815954 
-52.2311 -16.803 -68.4437 114 111 108 0.570233 0.163998 0.804946 
-51.9231 -16.5481 -68.5967 110 107 104 0.592402 0.184269 0.784286 
-52.9177 -15.8713 -68.1973 86 83 84 0.659995 0.216878 0.719285 
-51.9243 -16.68 -68.632 118 115 113 0.565067 0.183306 0.804424 
-52.5077 -16.1622 -68.2167 126 125 113 0.64349 0.1889 0.74178 
-51.5589 -16.411 -68.7362 129 125 124 0.503808 0.180892 0.844663 
-51.0307 -16.6846 -68.8716 114 109 109 0.680357 0.153042 0.716723 
-53.0021 -16.0924 -68.1026 84 81 87 0.679255 0.196504 0.707106 
-52.1648 -16.9668 -68.4473 112 109 108 0.587752 0.190829 0.786214 
-51.0435 -14.2513 -68.9775 49 49 57 0.584677 0.187768 0.789237 
-51.7403 -13.2504 -69.0792 49 46 55 0.685778 0.33393 0.646684 
-51.9252 -14.0097 -68.5988 56 62 55 -0.00675674 0.847295 0.53108 
-52.1294 -13.1673 -68.7881 71 68 77 0.668639 0.363069 0.648925 
-51.5492 -14.2734 -68.9993 59 63 64 0.258722 0.195753 0.945909 
-51.5548 -16.0941 -68.7748 125 121 119 0.548065 0.206097 0.810647 
-52.9843 -14.7651 -67.616 69 73 73 0.628439 0.168902 0.7593 
-51.3711 -15.7752 -68.9123 104 101 104 0.443887 0.437383 0.782087 
-51.4532 -15.4163 -68.8635 31 32 35 0.49313 0.405246 0.769804 
-50.6088 -16.6261 -69.1814 83 78 84 0.662262 0.203176 0.721199 
-51.6371 -15.6154 -68.8004 66 67 66 0.399987 0.43854 0.804794 
-50.8112 -13.3136 -69.5555 39 35 46 0.511873 0.0286649 0.858582 
-51.0487 -16.5321 -68.8927 85 83 85 0.560917 -0.100009 0.821809 
-53.1631 -15.0352 -68.0323 60 60 63 0.467121 0.185365 0.864545 
-51.6721 -13.6339 -68.9189 79 77 83 0.0610665 0.813747 0.578002 
-51.1598 -15.3789 -69.0521 52 50 57 0.552202 0.312114 0.773083 
-51.4692 -16.5587 -68.8039 111 110 107 0.570098 -0.115778 0.813378 
-51.279 -15.6361 -68.993 109 106 111 0.427567 0.376704 0.821755 
-51.4314 -15.3234 -68.7864 28 31 33 0.453678 0.286452 0.843873 
-52.2791 -14.6822 -67.7123 96 123 92 -0.0456148 0.855623 0.515585 
-50.6601 -16.4627 -69.1677 114 109 115 0.719485 0.0153676 0.694338 
-53.1156 -15.9402 -68.137 84 81 87 0.711708 0.0558483 0.700252 
-52.1023 -15.5427 -68.5228 76 81 66 0.479927 0.116042 0.8696 
-51.801 -16.752 -68.664 110 107 106 0.600976 0.21896 0.76869 
-51.357 -16.9877 -68.7595 155 150 151 0.603751 0.167961 0.779278 
-51.8672 -13.3077 -68.9632 79 76 85 0.688511 0.322385 0.649631 
-53.1625 -14.2168 -67.4382 63 60 71 0.463162 0.0705112 0.883464 
-51.6784 -13.4177 -69.0852 113 110 119 0.673829 0.355769 0.647598 
-52.3819 -13.6237 -68.6708 73 70 77 0.438689 0.102314 0.892795 
-52.1692 -14.149 -68.5662 72 86 70 0.248329 0.302875 0.920108 
-52.2443 -16.5678 -68.377 104 101 96 0.569029 0.231023 0.789199 
-52.3704 -16.6737 -68.2786 97 94 92 0.591142 0.25695 0.764544 
-52.1701 -16.3496 -68.4791 94 93 86 0.603474 0.198087 0.772386 
-53.1737 -13.4431 -68.2866 63 58 68 0.470508 0.255944 0.844462 
-52.1494 -13.4391 -68.7571 131 129 137 0.734966 0.209768 0.644843 
-52.2331 -16.9175 -68.3586 123 119 116 0.615208 0.178609 0.767866 
-52.2421 -13.3922 -68.7185 77 75 84 0.766307 0.104429 0.633931 
-50.9669 -13.2298 -69.4795 92 87 98 0.503885 0.107668 0.857034 
-52.2546 -13.2975 -68.791 54 51 60 0.668391 0.38123 0.638684 
-52.7082 -16.1512 -68.1757 85 83 81 0.572765 -0.0639564 0.817221 
-51.5158 -16.6683 -68.7752 117 113 114 0.663983 0.044076 0.746448 
-51.0389 -13.2112 -69.4269 64 59 69 0.284848 0.474747 0.832753 
-52.1133 -16.516 -68.4901 105 103 98 0.617967 0.21948 0.754947 
-50.2813 -15.628 -69.415 47 40 49 0.366231 0.311525 0.876828 
-51.5575 -16.4119 -68.7202 138 134 131 0.486583 0.17304 0.856326 
-52.0656 -16.7375 -68.5279 58 55 53 0.639955 0.0615617 0.765942 
-51.9135 -13.3209 -68.8849 71 68 76 0.700387 0.304306 0.645644 
-51.5042 -16.5192 -68.7236 133 129 129 0.641906 0.0124776 0.766682 
-51.3771 -13.3547 -69.1815 97 95 104 0.505882 0.116742 0.854666 
-51.1951 -16.1631 -68.929 100 97 99 0.711181 0.0953129 0.696518 
-51.399 -16.2889 -68.7978 135 131 131 0.613808 0.070437 0.786307 
-51.2635 -16.1405 -68.8462 104 101 102 0.708273 0.0953162 0.699474 
-50.9452 -16.3785 -69.1281 100 95 99 0.659628 0.0829995 0.746996 
-51.6631 -15.1178 -67.9417 94 118 91 0.579363 -0.555716 0.596254 
-51.028 -16.7921 -68.883 100 95 96 0.664264 0.179489 0.725628 
-50.9009 -16.2553 -69.0883 105 101 105 0.738223 0.0953967 0.667777 
-51.1108 -16.1475 -68.9848 103 99 102 0.716571 0.101526 0.690086 
-51.2333 -14.4076 -69.0767 66 67 74 0.351717 0.0756523 0.933045 
-51.3613 -16.4287 -68.8099 114 111 111 0.688126 0.0324987 0.724863 
-51.4081 -16.2603 -68.7908 131 128 127 0.683008 0.0125195 0.730304 
-50.7896 -16.0708 -69.1524 82 77 81 0.484077 0.0739368 0.871896 
-51.7875 -16.7122 -68.6421 107 104 103 0.525978 0.136256 0.839513 
-51.4868 -16.6135 -68.7699 129 125 125 0.505481 0.167506 0.846422 
-51.614 -16.8177 -68.7464 91 87 88 0.519146 0.136002 0.843795 
-50.8037 -14.6111 -69.2282 72 68 79 0.538011 0.162447 0.827137 
-51.7616 -13.3224 -69.1309 61 58 67 0.548409 0.561908 0.61928 
-52.3469 -16.6118 -68.2406 87 84 81 0.617542 0.22244 0.754428 
-51.4307 -13.1623 -69.2925 105 101 112 0.691635 0.315852 0.649522 
-51.5108 -13.3977 -69.196 45 42 51 0.645945 0.406829 0.645945 
-52.2947 -16.3996 -68.3607 110 109 101 0.600976 0.21896 0.76869 
-52.6676 -15.3872 -68.3233 95 97 82 0.539532 0.0260843 0.841561 
-52.0552 -16.3023 -68.6053 98 96 90 0.578554 0.193869 0.792269 
-52.1791 -16.1705 -68.429 98 98 89 0.635092 0.17905 0.751398 
-51.1709 -15.1825 -69.0013 27 27 33 0.485902 0.246783 0.838449 
-50.9081 -16.1907 -69.0437 113 109 112 0.69149 -0.0153664 0.722223 
-51.1344 -16.09 -68.9566 128 124 127 0.69589 -0.00694501 0.718114 
-52.1108 -16.999 -68.3983 121 118 116 0.612884 0.192006 0.76649 
-51.5374 -15.7852 -68.7722 82 80 80 0.499365 0.39201 0.772634 
-53.0348 -16.0766 -67.6772 60 55 65 0.549197 0.552577 0.62693 
-51.319 -15.8754 -68.8653 96 93 95 0.478961 0.378976 0.791817 
-51.3656 -13.2255 -69.2562 114 110 120 0.472525 0.192289 0.860084 
-51.8922 -13.4496 -68.9274 48 46 54 0.696392 0.30861 0.647919 
-51.29 -16.0313 -68.8553 109 105 107 0.708662 0.0891307 0.699895 
-52.2081 -17.092 -68.3948 119 116 115 0.607094 0.168049 0.776657 
-51.2387 -16.7906 -68.8403 107 102 103 0.687197 0.133247 0.714146 
-52.8191 -16.3759 -68.2147 94 90 92 0.576366 -0.109437 0.809831 
-52.1902 -16.7893 -68.4096 124 119 115 0.573325 0.184012 0.798397 
-51.04 -15.751 -69.0301 99 95 102 0.465344 0.259549 0.84622 
-51.1594 -15.9798 -68.9672 125 121 125 0.440056 0.246492 0.863477 
-52.6067 -16.055 -68.297 101 102 90 0.560874 0.527188 0.638352 
-50.8569 -15.6857 -69.0974 84 79 87 0.446919 0.26083 0.855705 
-51.0528 -15.7543 -69.0408 99 95 102 0.448625 0.234131 0.862507 
-50.7729 -14.2547 -69.3332 46 43 54 0.361929 0.0565925 0.930486 
-52.1114 -16.0221 -68.1096 119 119 105 0.628083 -0.10102 0.771561 
-50.9835 -15.7147 -69.0777 87 83 90 0.454928 0.231243 0.859981 
-50.6031 -15.5812 -69.1994 42 37 46 0.444473 0.261185 0.85687 
-50.8883 -13.4441 -69.4804 62 57 68 0.511631 0.0686847 0.856456 
-50.8313 -15.4788 -69.1131 106 101 109 0.434019 0.246498 0.866525 
-51.8338 -14.7458 -68.6264 59 71 55 0.5969 0.364682 0.714645 
-50.6258 -15.8184 -69.2194 63 58 66 0.473285 0.109438 0.874085 
-52.5494 -15.2525 -67.5135 66 69 69 0.383119 -0.580433 0.718553 
-50.8109 -15.7143 -69.1289 82 78 86 0.436787 0.0698311 0.896851 
-50.6443 -15.6826 -69.2559 65 60 69 0.444554 0.00923407 0.895704 
-50.7279 -15.8899 -69.1009 87 82 89 0.441307 0.0172282 0.897191 
-50.7834 -15.5201 -69.1115 124 119 128 0.432317 0.095916 0.896606 
-50.9885 -15.2922 -69.124 62 58 66 0.588804 0.303226 0.749242 
-51.0716 -15.5261 -69.0325 78 74 82 0.529544 0.327966 0.782318 
-52.6431 -14.3692 -67.9755 102 119 100 -0.0508744 0.875864 0.479869 
-53.3094 -16.563 -67.9035 42 36 47 0.658802 0.223773 0.718266 
-50.8652 -15.0387 -69.116 65 62 71 0.484719 0.202592 0.850884 
-50.5965 -15.205 -69.298 60 54 64 0.542035 0.140309 0.82856 
-51.4953 -15.8996 -68.8431 96 93 92 0.535873 0.155863 0.829787 
-51.5915 -16.3261 -68.7221 132 129 127 0.518964 0.238692 0.820794 
-51.8481 -16.2303 -68.6556 92 90 85 0.513937 0.207697 0.832305 
-52.0379 -16.3375 -68.5117 66 64 58 0.513937 0.207697 0.832305 
-53.1534 -14.0086 -68.2843 61 59 65 0.500389 0.217494 0.838038 
-51.732 -15.4719 -68.8256 64 69 66 0.433248 0.420363 0.79724 
-51.5742 -15.1905 -68.8507 30 35 35 0.523531 0.431046 0.734925 
-52.0897 -13.2177 -68.8724 53 51 60 0.627555 0.446819 0.637595 
-51.0036 -16.4167 -69.0755 120 115 117 0.447665 0.102444 0.888314 
-52.3773 -14.1776 -68.2391 97 113 95 0.0921097 0.644768 0.758808 
-51.2925 -16.032 -68.8574 123 118 119 0.505894 0.0427322 0.861536 
-51.4013 -16.6166 -68.8014 105 104 102 0.563413 -0.115609 0.818047 
-52.6925 -15.7969 -68.1367 68 70 64 0.543936 0.296548 0.78498 
-52.9753 -17.103 -67.9488 84 79 89 0.55199 0.333125 0.764418 
-52.8494 -17.0506 -68.0672 73 68 77 0.521509 0.32375 0.78944 
-52.4699 -17.0852 -68.2824 79 75 78 0.475119 0.521798 0.708511 
-53.1468 -16.4288 -67.9241 80 75 86 0.732237 0.375128 0.568426 
-51.9666 -15.2128 -67.9708 109 136 106 0.695829 -0.265912 0.667168 
-52.4896 -17.0024 -68.2711 99 94 97 0.611504 0.161558 0.774572 
-53.5331 -14.8849 -67.8682 61 58 67 0.485306 0.254208 0.836574 
-52.6954 -16.9019 -68.1611 76 71 77 0.545264 0.318204 0.775522 
-50.5154 -15.492 -69.2881 85 79 88 0.332981 0.326954 0.884434 
-52.784 -16.0236 -68.0494 84 82 84 0.609831 0.129088 0.781948 
-52.2895 -16.338 -68.4373 92 89 79 0.556412 0.20693 0.804727 
-52.4007 -13.7498 -68.656 57 56 60 0.452858 0.17147 0.874939 
-50.9805 -13.7923 -69.3359 65 62 72 0.545196 -0.0289851 0.837807 
-52.8429 -16.9468 -68.1266 62 58 66 0.603623 0.278718 0.746964 
-50.5533 -14.4564 -69.3781 79 74 85 0.540811 0.146686 0.828255 
-52.8868 -17.1585 -67.9993 92 87 97 0.538319 0.335847 0.772929 
-52.9913 -13.4668 -68.3938 73 68 78 0.430041 0.192271 0.882098 
-53.3311 -15.1398 -68.014 60 58 65 0.512807 0.255629 0.819562 
-52.9994 -16.9738 -67.9675 50 45 55 0.545366 0.329794 0.770592 
-53.0182 -17.0416 -67.9606 40 35 45 0.575362 0.183691 0.797005 
-53.1231 -16.7832 -67.9647 69 64 74 0.549859 0.351975 0.757475 
-50.0921 -16.0896 -69.6095 117 110 119 0.397497 0.455432 0.796604 
-53.2029 -16.9254 -67.8323 41 36 47 0.568258 0.200652 0.798011 
-52.6422 -17.0545 -68.2415 97 93 98 0.439025 0.465138 0.768702 
-53.1061 -14.8746 -68.2609 64 68 67 0.761568 0.198469 0.616947 
-52.3052 -13.3091 -68.6042 62 60 69 0.644582 0.421393 0.63792 
-52.8588 -14.3373 -68.4342 130 138 129 0.299787 0.445797 0.843441 
-50.6231 -16.5251 -69.1928 93 88 94 0.661166 0.189565 0.725896 
-51.0727 -14.2687 -69.2538 67 64 73 0.417176 0.166004 0.893536 
-52.2232 -14.6229 -67.3411 113 140 110 0.152354 0.62601 0.764788 
-52.7189 -16.8942 -68.2463 76 72 76 0.603623 0.278718 0.746964 
-52.8922 -16.7761 -68.1085 89 83 90 0.585308 0.274413 0.762963 
-51.0575 -13.0061 -69.3875 51 47 57 0.439235 -0.0145093 0.898255 
-51.986 -15.0913 -67.568 94 129 91 -0.0512982 0.860978 0.50605 
-50.6526 -13.5633 -69.4846 61 58 69 0.7379 0.219966 0.638058 
-52.3564 -16.7964 -68.3055 115 111 109 0.573711 0.154288 0.804394 
-53.3502 -14.0253 -68.1522 66 63 71 0.53827 0.159543 0.827534 
-52.3862 -16.297 -68.3963 117 116 106 0.64349 0.1889 0.74178 
-51.9939 -16.1468 -68.5132 83 81 74 0.612661 0.174829 0.770767 
-53.0836 -16.4033 -68.0199 76 72 83 0.752189 0.3867 0.533549 
-52.2575 -16.9242 -68.3782 113 109 108 0.592353 0.201554 0.78006 
-52.4986 -14.0004 -68.5721 123 129 124 0.517186 0.126747 0.846436 
-52.7086 -16.9808 -68.1784 72 68 74 0.544017 0.328978 0.771894 
-51.4937 -14.5137 -68.9099 48 52 51 0.368105 0.0432295 0.928779 
-52.6929 -15.819 -68.199 63 61 55 0.525194 -0.0122138 0.850895 
-51.8567 -13.6149 -69.0206 71 69 76 0.393366 0.252771 0.883951 
-51.5537 -14.3253 -68.9403 63 69 68 0.3726 0.0681096 0.925489 
-49.973 -16.6595 -69.4234 69 63 74 0.707059 0.0648018 0.704179 
-49.9231 -16.3569 -69.5114 64 58 67 0.63291 0.182364 0.752442 
-51.5235 -14.1805 -68.7152 70 78 72 0.493269 -0.157552 0.85549 
-51.5529 -15.2835 -68.7996 39 43 42 0.465635 0.442761 0.766255 
-53.5704 -14.3744 -67.9019 101 97 106 0.511274 0.231839 0.827557 
-51.4602 -16.0934 -68.7761 107 104 104 0.681415 -0.0528561 0.729986 
-50.8596 -13.083 -69.5258 79 74 85 0.38168 0.410187 0.828292 
-50.8381 -14.5686 -69.1734 33 30 41 0.495049 0.166987 0.852667 
-53.1753 -14.3749 -68.2795 88 93 89 0.540711 0.139966 0.829483 
-51.3854 -16.2793 -68.8144 140 135 134 0.477058 0.0976766 0.873427 
-52.2016 -16.8052 -68.3364 122 118 114 0.671736 0.182921 0.717851 
-50.0941 -16.683 -69.3955 94 88 99 0.710497 0.050035 0.701919 
-51.8929 -14.8829 -68.0555 74 102 69 0.0828479 0.763073 0.640981 
-53.1591 -16.5493 -67.9969 70 63 73 0.499271 0.107293 0.859777 
-53.2676 -16.1591 -68.0015 66 60 70 0.654635 0.179373 0.734356 
-50.8087 -13.6581 -69.4795 54 49 60 0.540326 -0.0177829 0.841268 
-50.1925 -16.5555 -69.3299 110 104 113 0.690301 0.172958 0.702546 
-52.1907 -13.2593 -68.732 53 50 59 0.663018 0.388552 0.639871 
-52.0315 -16.1591 -68.5447 85 84 76 0.628126 0.19197 0.754059 
-52.3144 -13.23 -68.7204 62 59 69 0.562444 0.140982 0.814728 
-52.2658 -13.9714 -68.4927 109 119 110 0.40479 0.19728 0.892875 
-52.2867 -13.4025 -68.7551 78 76 85 0.560188 0.134504 0.817372 
-50.9302 -15.5249 -69.1006 106 102 110 0.42523 0.228281 0.875824 
-51.1909 -15.43 -69.0398 85 82 89 0.434367 0.20903 0.876146 
-50.7751 -13.05 -69.5357 67 62 74 0.561079 0.131066 0.81732 
-52.5116 -14.3267 -68.4391 123 139 122 0.718984 0.529691 0.449988 
-50.9059 -14.0528 -69.4153 87 82 93 0.288886 0.109487 0.951082 
-53.0793 -16.1492 -68.0146 72 67 76 0.593606 -0.00685457 0.804727 
-50.7454 -13.2119 -69.5279 77 73 84 0.574853 0.147819 0.804794 
-51.1631 -13.3782 -69.2591 96 93 103 0.599283 0.164539 0.783446 
-50.831 -13.4258 -69.4389 64 60 71 0.586047 0.0759425 0.80671 
-50.966 -13.4903 -69.3723 80 77 87 0.577946 0.141144 0.803776 
-50.8223 -13.4367 -69.4718 71 68 79 0.573711 0.154288 0.804394 
-50.4668 -15.1886 -69.5251 71 66 76 0.438838 0.267584 0.857799 
-51.0785 -13.6207 -69.2684 86 83 93 0.577946 0.141144 0.803776 
-50.9152 -16.4314 -69.0311 125 120 122 0.679987 0.0954625 0.726984 
-51.0714 -13.1588 -69.3444 60 57 67 0.556804 0.134401 0.819698 
-52.253 -14.3713 -67.5501 108 133 105 -0.119635 0.896558 0.426463 
-53.2516 -15.0698 -67.9779 96 94 100 0.464539 0.188487 0.86526 
-51.7314 -16.4199 -68.6333 132 128 124 0.481798 0.176412 0.858341 
-51.1862 -13.3836 -69.2785 96 93 103 0.522563 0.13613 0.841663 
-53.1342 -14.4798 -68.2798 79 96 80 0.561289 0.147394 0.814389 
-54.0289 -13.6383 -67.8479 91 85 98 0.591088 0.085267 0.802088 
-53.6377 -14.1838 -67.9672 58 54 64 0.586929 0.167478 0.792127 
-53.0683 -16.6591 -67.973 98 91 101 0.555949 0.0786046 0.827492 
-51.8846 -13.2589 -68.965 65 62 71 0.506949 0.126374 0.852662 
-51.8243 -13.4227 -68.9723 118 116 124 0.492235 0.122698 0.861772 
-51.9972 -13.4826 -68.8955 74 72 79 0.445287 0.105352 0.889169 
-50.5528 -15.2202 -69.3714 65 60 70 0.489152 0.318187 0.812088 
-52.146 -13.537 -68.7988 101 99 107 0.45753 0.109071 0.88248 
-50.6453 -13.6137 -69.508 49 46 57 0.516466 0.00674237 0.856281 
-51.019 -15.4269 -69.0724 99 95 103 0.425518 0.22545 0.876417 
-52.9378 -16.7357 -68.0694 75 68 76 0.513932 0.371263 0.773329 
-50.758 -13.5996 -69.4759 53 49 60 0.586047 0.0759425 0.80671 
-50.6408 -16.3491 -69.1492 125 120 126 0.425963 0.0666843 0.90228 
-50.881 -16.2499 -69.0717 100 96 100 0.45428 0.0731819 0.887848 
-53.3204 -14.4418 -68.2383 77 79 80 0.595795 -0.100513 0.796822 
-52.6335 -16.1601 -68.082 88 85 84 0.574134 0.305458 0.759648 
-51.5443 -13.3181 -69.1788 43 40 49 0.70938 0.283432 0.645327 
-52.0794 -14.3344 -68.1873 95 115 90 0.341162 0.403474 0.84901 
-51.6257 -13.3383 -69.1141 88 85 94 0.713811 0.276262 0.643547 
-53.5551 -14.7566 -67.8484 43 45 56 0.439553 0.240168 0.865512 
-53.1732 -15.4725 -68.0675 63 62 66 0.586414 0.0582154 0.807917 
-51.4703 -15.5596 -68.8807 52 52 54 0.520158 0.334502 0.785839 
-53.1925 -16.5372 -67.9286 68 62 73 0.564152 0.0433963 0.82453 
-51.7794 -14.4671 -68.7573 83 96 83 0.328006 0.576838 0.748111 
-50.7792 -15.7034 -69.1361 86 81 90 0.441388 0.00922303 0.897269 
-51.5298 -16.4907 -68.729 131 127 127 0.506798 0.0398296 0.861144 
-50.6057 -13.7294 -69.5028 74 71 82 0.738858 0.223376 0.635761 
-52.9656 -16.6992 -68.1062 80 73 80 0.524958 0.378685 0.762245 
-50.4834 -14.5334 -69.4544 87 83 94 0.486338 0.0770853 0.870364 
-51.8651 -14.9674 -67.5552 47 78 45 0.410832 -0.342099 0.845095 
-52.9125 -15.9866 -67.9985 87 83 88 0.498507 -0.141804 0.855209 
-52.4176 -16.4075 -68.305 119 117 106 0.617814 0.212132 0.75717 
-52.6311 -15.2273 -67.6069 93 102 93 0.0965251 0.551778 0.828387 
-51.6847 -16.9794 -68.6961 101 98 99 0.365476 0.621145 0.693257 
-51.37 -16.8237 -68.8742 102 98 100 0.371282 0.58064 0.724573 
-53.1687 -15.2585 -68.164 56 60 60 0.55939 -0.00680523 0.828877 
-51.5246 -16.272 -68.7518 126 122 119 0.365258 0.310696 0.877528 
-53.0313 -15.8611 -68.2298 68 67 70 0.509184 0.385548 0.76947 
-52.4738 -16.4642 -68.2864 100 98 92 0.584804 0.221822 0.780256 
-51.753 -15.1039 -68.335 72 94 70 0.576763 -0.11594 0.808642 
-50.6155 -16.7967 -69.2728 86 80 86 0.66149 0.126922 0.739136 
-52.5908 -14.3656 -68.4842 123 137 119 0.420422 0.268645 0.866646 
-51.6236 -14.9459 -67.6905 82 105 79 0.569421 0.244929 0.784709 
-52.1902 -13.5591 -68.7334 99 97 105 0.728179 0.216738 0.650215 
-51.4347 -14.7514 -67.8867 70 93 67 0.770799 -0.322101 0.549655 
-51.1599 -16.3765 -68.9333 94 93 91 0.538341 -0.0871056 0.838213 
-50.9171 -13.6569 -69.3894 71 67 77 0.406246 0.118663 0.906026 
-52.244 -15.9386 -68.5031 119 122 106 0.512849 0.0894999 0.853801 
-50.1801 -16.0693 -69.4029 103 97 105 0.427238 0.156798 0.890439 
-51.5754 -16.3218 -68.7088 131 128 125 0.506851 0.0370867 0.861235 
-53.8999 -13.6636 -67.9848 56 51 62 0.547588 0.0577149 0.834755 
-53.7017 -14.4898 -67.8319 68 63 73 0.601508 0.161307 0.782412 
-51.9654 -13.8431 -68.5438 66 70 67 -0.0122455 0.84494 0.534721 
-53.7588 -13.7321 -68.0201 61 56 68 0.607436 0.0703649 0.791246 
-53.2776 -14.5895 -68.1258 44 50 53 0.446055 0.223778 0.866578 
-50.4426 -14.415 -69.5015 87 81 92 0.492235 0.122698 0.861772 
-53.8906 -14.1379 -67.9021 84 80 91 0.577101 0.154393 0.801946 
-50.5606 -15.8101 -69.2904 96 90 98 0.578231 0.14792 0.802352 
-51.9301 -15.1309 -68.6961 50 60 49 0.538621 0.140189 0.830804 
-52.6136 -14.4802 -67.2724 59 62 59 -0.229331 0.845943 0.481443 
-53.8524 -14.216 -67.8989 57 52 63 0.578378 0.094222 0.810309 
-52.7612 -14.4015 -68.1248 105 122 105 0.426478 0.582466 0.69199 
-53.3492 -15.1424 -67.98 63 62 70 0.749281 0.172442 0.639407 
-53.8365 -13.7633 -67.9765 35 31 42 0.578186 0.13823 0.80411 
-50.3017 -16.5761 -69.2926 112 105 113 0.56104 0.150305 0.814029 
-53.7748 -14.3117 -67.9346 74 70 81 0.597315 0.154971 0.786892 
-53.591 -14.2201 -68.0011 60 57 67 0.608473 0.158535 0.777578 
-52.4925 -16.8032 -68.2803 114 109 108 0.550931 0.0997749 0.828565 
-51.5304 -14.1497 -68.9997 28 31 33 0.854198 0.264358 0.447728 
-49.9866 -16.287 -69.5389 60 54 64 0.721022 0.120418 0.682369 
-52.8585 -15.8038 -68.2297 91 89 88 0.503776 -0.00671702 0.863808 
-50.3595 -15.5907 -69.366 95 88 97 0.665831 0.130174 0.734659 
-49.9614 -16.7451 -69.4409 64 58 69 0.693847 0.169268 0.699946 
-53.2377 -15.1636 -67.625 39 36 46 0.534074 0.120785 0.836765 
-50.1772 -16.6406 -69.3439 105 99 109 0.663138 0.139846 0.735317 
-49.8358 -16.7063 -69.5203 30 24 35 0.691131 0.166299 0.703337 
-50.7376 -16.1289 -69.1203 112 108 113 0.704184 0.0181996 0.709784 
-52.4582 -16.4625 -68.1993 100 98 93 0.529691 0.449988 0.718984 
-52.1685 -16.3767 -68.3955 95 94 87 0.62435 0.142238 0.768085 
-52.3498 -16.0786 -68.2545 114 115 104 0.604075 -0.110233 0.789266 
-51.4723 -15.1482 -68.9864 38 41 45 0.43264 0.465292 0.772222 
-51.3819 -14.1081 -69.0987 47 47 53 0.283125 0.248979 0.926202 
-52.2747 -14.9511 -67.8232 93 129 91 -0.0456148 0.855623 0.515585 
-50.3347 -16.0308 -69.3667 72 67 76 0.679191 0.149755 0.718521 
-50.0991 -15.7562 -69.5499 71 65 75 0.701069 0.159679 0.694986 
-50.0922 -16.1285 -69.4401 56 50 60 0.671289 0.123541 0.730827 
-50.2202 -15.8048 -69.4323 77 71 81 0.675501 0.0952442 0.731182 
-53.2201 -14.5148 -68.2208 75 79 78 0.548623 0.14344 0.823673 
-51.4751 -16.4792 -68.7555 118 116 114 0.568594 -0.0726774 0.819402 
-52.0606 -15.4604 -68.5226 109 117 100 0.57446 -0.0377383 0.817662 
-51.3586 -14.7727 -68.6091 55 63 58 0.67762 -0.226916 0.699529 
-50.0174 -16.1152 -69.5062 65 59 69 0.711259 0.210109 0.670794 
-50.2247 -16.0075 -69.4023 84 78 87 0.699842 0.142978 0.699842 
-52.7818 -16.0621 -68.2091 118 117 110 0.486306 0.408237 0.77256 
-50.3287 -15.6755 -69.3732 71 65 75 0.704014 0.14623 0.694969 
-50.9481 -15.2664 -69.0871 63 60 68 0.542618 0.351487 0.762904 
-49.9366 -16.5267 -69.4321 67 60 71 0.63454 0.0856702 0.768127 
-49.9884 -16.2174 -69.4787 83 77 87 0.701093 0.206752 0.682438 
-52.3885 -14.3366 -68.3603 120 135 116 0.361091 0.28318 0.888494 
-51.2663 -15.9432 -68.9119 90 87 89 0.516298 0.104985 0.84995 
-51.4105 -16.1464 -68.8342 102 99 99 0.509394 0.224868 0.830634 
-52.5784 -16.2112 -68.3032 130 128 117 0.630552 0.206053 0.748296 
-51.4537 -15.7773 -68.829 99 97 98 0.503657 0.204185 0.839428 
-50.1095 -15.9274 -69.3791 81 74 82 0.365883 0.314265 0.875995 
-51.895 -15.5774 -68.6483 86 86 79 0.486566 0.11913 0.865484 
-51.2945 -15.7582 -68.9177 110 107 111 0.516298 0.104985 0.84995 
-51.5432 -15.9346 -68.787 95 92 92 0.494627 0.213279 0.84253 
-51.3799 -13.697 -69.1771 101 98 106 0.488023 0.110199 0.865847 
-52.6045 -15.2485 -68.3551 80 90 68 0.566778 -0.0375995 0.823012 
-52.5272 -16.115 -68.2155 107 107 98 0.477014 0.367799 0.798236 
-52.6706 -16.6727 -68.2505 76 73 75 0.783774 0.283426 0.552601 
-51.8603 -14.4233 -67.5604 89 117 86 0.585839 -0.0377509 0.809548 
-52.5255 -16.1586 -68.2951 140 138 125 0.575612 -0.445474 0.685729 
-50.7276 -15.9792 -69.1388 74 68 74 0.464468 0.231478 0.854803 
-50.916 -13.5109 -69.4461 71 67 77 0.479548 0.0857843 0.873312 
-50.5007 -14.9847 -69.3795 72 67 77 0.620355 0.0351675 0.783532 
-50.5305 -14.6341 -69.4137 92 88 99 0.611753 0.0762892 0.787362 
-50.3274 -15.1013 -69.511 106 100 111 0.61899 0.0350901 0.784615 
-50.598 -14.2789 -69.4499 83 79 90 0.454147 0.108939 0.884242 
-50.5108 -14.0613 -69.5383 82 78 89 0.528837 -0.0544186 0.846977 
-50.6831 -14.2843 -69.381 57 53 64 0.456388 0.108798 0.883104 
-50.4778 -14.3911 -69.4832 98 94 105 0.448652 0.105483 0.88746 
-50.6025 -14.0712 -69.4741 50 46 57 0.433279 0.0989158 0.895815 
-51.6821 -16.5482 -68.6343 119 115 111 0.512009 0.177636 0.840412 
-53.0536 -17.1153 -67.944 58 52 63 0.52749 0.117704 0.841368 
-50.4962 -14.2497 -69.4884 86 82 93 0.448652 0.105483 0.88746 
-52.2711 -15.4592 -68.0072 101 108 91 0.525389 -0.698851 0.485359 
-50.5499 -16.0551 -69.1956 69 64 71 0.422714 0.140905 0.895242 
-50.6939 -16.2582 -69.1176 93 88 93 0.442477 -0.00393897 0.896771 
-50.3831 -16.0365 -69.2745 58 52 61 0.423793 0.141264 0.894675 
-51.5234 -14.2211 -68.8638 71 78 75 0.852672 0.267895 0.448533 
-50.3735 -16.2202 -69.2923 94 89 97 0.420538 0.153575 0.894182 
-50.4076 -15.8519 -69.2758 78 72 81 0.446687 0.142193 0.883319 
-52.6512 -13.7404 -68.5397 57 55 61 0.475127 0.245966 0.84484 
-51.7983 -16.3983 -68.6722 113 110 107 0.650743 0.344127 0.676838 
-50.7449 -13.539 -69.4488 62 57 67 0.344747 0.217811 0.913076 
-52.2194 -13.5658 -68.7573 101 99 106 0.564468 0.140747 0.813367 
-50.6907 -14.6925 -69.3282 52 48 59 0.550839 0.0346876 0.83389 
-50.49 -14.8028 -69.4379 74 69 80 0.534235 -0.00676247 0.845309 
-50.9482 -15.5388 -69.03 109 104 112 0.432317 0.095916 0.896606 
-53.5754 -14.5346 -67.9435 85 82 92 0.468741 0.17892 0.865026 
-52.7028 -16.77 -68.1718 90 84 88 0.455104 0.438792 0.774818 
-52.6395 -13.3383 -68.529 63 61 69 0.52236 0.145672 0.84019 
-50.6888 -15.0683 -69.2227 83 78 88 0.618487 0.0408568 0.784732 
-53.7844 -14.4313 -67.8397 63 58 68 0.571157 0.160404 0.805016 
-50.6063 -15.1574 -69.2764 40 34 44 0.62166 0.0380608 0.782362 
-50.3261 -15.0524 -69.4727 112 107 118 0.620355 0.0351675 0.783532 
-53.3168 -16.4915 -67.8741 77 72 82 0.570717 -0.0151274 0.821007 
-50.5143 -14.944 -69.36 65 60 70 0.617253 0.0351511 0.785979 
-53.7709 -13.5557 -67.9742 63 57 69 0.583826 0.0551312 0.810005 
-50.7969 -13.3184 -69.4212 82 77 87 0.534064 0.102206 0.839243 
-51.2166 -14.6079 -68.8198 43 46 50 0.513775 0.126624 0.848529 
-51.3497 -14.6106 -68.3287 53 67 53 0.649982 0.0266731 0.759482 
-51.8166 -13.7725 -68.9489 43 44 47 0.45202 0.105612 0.885734 
-53.6314 -13.7548 -68.0451 82 77 88 0.5545 0.118508 0.823703 
-53.7958 -14.001 -68.0158 69 65 76 0.55217 0.150321 0.820069 
-53.401 -14.8754 -67.9196 57 54 64 0.622544 0.079443 0.778542 
-53.5415 -14.957 -67.9123 44 44 55 0.476636 0.140528 0.867796 
-51.2586 -13.3633 -69.2188 94 90 99 0.508885 0.135606 0.850086 
-51.8907 -14.1815 -68.7714 67 79 69 0.499434 0.0539554 0.86467 
-53.1009 -15.3079 -67.7598 57 56 63 0.62033 -0.11051 0.776517 
-51.343 -15.9842 -68.8549 114 111 112 0.557886 0.147282 0.816745 
-51.6977 -16.2716 -68.6423 122 117 113 0.515025 0.0659569 0.854634 
-52.2517 -13.4686 -68.7274 95 91 100 0.459533 0.115239 0.880653 
-52.7486 -16.3498 -68.1431 101 98 97 0.507941 0.0426726 0.860334 
-51.0423 -16.8045 -68.976 114 110 113 0.601684 0.188313 0.776218 
-51.1555 -13.5403 -69.2738 63 59 69 0.502288 0.125934 0.855481 
-53.6367 -13.8429 -67.9484 78 72 83 0.527307 0.120569 0.841077 
-51.4459 -13.2857 -69.2172 84 81 90 0.530338 0.188867 0.826481 
-53.4238 -13.7619 -67.9946 73 69 79 0.594787 0.17102 0.785481 
-51.4177 -15.8828 -68.7232 88 86 85 0.403721 0.439107 0.802617 
-52.6996 -16.7437 -68.2597 78 74 78 0.770436 0.276851 0.574267 
-51.2137 -16.8428 -68.8455 95 90 91 0.65891 0.0920428 0.74657 
-51.6711 -13.1795 -69.1265 47 45 54 0.576832 0.157318 0.801571 
-53.1321 -16.9068 -67.9134 58 53 63 0.544928 0.00679461 0.838455 
-53.5226 -15.1261 -67.7815 78 74 83 0.527795 0.215708 0.821525 
-50.9273 -13.3462 -69.3847 59 55 66 0.430908 0.252497 0.866351 
-51.1221 -13.1634 -69.3505 73 70 80 0.444917 0.267562 0.854669 
-52.5624 -14.1281 -68.0733 111 120 110 -0.0990351 0.896895 0.431012 
-51.0259 -13.2034 -69.4146 63 60 71 0.453671 0.255094 0.853879 
-51.0916 -13.4258 -69.3065 78 75 86 0.429837 0.218637 0.876035 
-53.4635 -14.8231 -68.035 113 118 115 0.746462 0.230042 0.624399 
-51.5562 -16.1559 -68.8714 119 115 113 0.481875 0.192452 0.854844 
-51.5059 -15.1852 -68.8072 27 33 33 0.457534 0.304502 0.835429 
-51.1878 -15.2348 -69.0304 39 38 46 0.508956 0.167674 0.844304 
-53.544 -14.8873 -67.8831 57 54 61 0.550034 0.124674 0.825784 
-52.5062 -14.5472 -68.1077 102 126 98 0.383153 0.450485 0.806385 
-52.4294 -15.7324 -68.447 107 113 95 0.55363 0.051859 0.831146 
-51.2544 -14.9979 -69.0372 35 36 42 0.508956 0.167674 0.844304 
-53.2742 -16.4704 -67.9879 66 61 71 0.592106 0.317833 0.740535 
-51.26 -13.4099 -69.2197 73 70 80 0.533891 0.139724 0.833929 
-51.8752 -13.8604 -68.9254 57 58 60 0.688482 0.315892 0.652843 
-50.3603 -15.128 -69.4452 74 68 78 0.604731 0.106889 0.789225 
-50.4245 -15.428 -69.3623 90 83 92 0.538569 0.20902 0.816244 
-50.4168 -15.0961 -69.4406 37 32 42 0.620355 0.0351675 0.783532 
-52.3602 -15.4986 -68.4678 110 120 101 0.556846 0.0150499 0.83048 
-50.3727 -16.7888 -69.2287 71 64 73 0.691342 0.199515 0.694435 
-50.2223 -16.561 -69.2689 109 103 111 0.692396 0.202917 0.692396 
-52.3643 -13.4407 -68.5992 72 69 78 0.729158 0.220153 0.647967 
-51.488 -13.2128 -69.2957 104 100 110 0.398528 0.0519819 0.915682 
-50.7435 -14.528 -69.3194 41 37 47 0.536308 0.0872395 0.839501 
-51.1656 -14.3103 -69.1112 50 49 57 0.516569 0.0371929 0.855438 
-51.3419 -15.8645 -68.8405 119 116 116 0.509085 0.0455279 0.859511 
-51.2068 -14.9636 -69.1247 33 33 41 0.54326 0.186131 0.818672 
-50.8386 -14.3406 -69.2932 75 71 82 0.536308 0.0872395 0.839501 
-53.3769 -15.3001 -68.0562 68 67 72 0.724364 0.133475 0.676373 
-51.8814 -16.3871 -68.5897 66 64 60 0.490324 0.0229628 0.871237 
-52.4471 -17.0601 -68.31 79 74 75 0.518403 0.320612 0.792758 
-51.1938 -13.1415 -69.3278 104 100 110 0.519504 0.123691 0.845468 
-51.3306 -14.3766 -68.4154 71 82 73 0.456637 -0.149313 0.877034 
-53.3483 -16.3237 -67.8835 62 59 68 0.561814 -0.0262272 0.826847 
-51.8976 -16.203 -68.5803 74 72 67 0.517129 0.0259247 0.855515 
-51.8624 -16.5714 -68.5956 121 118 116 0.490353 0.0202625 0.871288 
-51.5874 -16.1644 -68.7677 120 117 115 0.503147 0.0230552 0.863893 
-51.9901 -16.5922 -68.4681 80 77 74 0.486172 0.0257305 0.873484 
-53.7041 -14.472 -67.9319 69 66 77 0.572347 0.144202 0.807233 
-53.5219 -13.8428 -67.8647 71 67 78 0.570343 0.144447 0.808606 
-52.895 -16.0923 -68.1978 98 95 94 0.555357 0.381705 0.738837 
-51.8867 -14.9567 -67.426 86 111 84 0.412468 -0.422098 0.807282 
-51.9089 -16.0192 -68.5649 94 94 87 0.518815 0.0149007 0.854757 
-52.3959 -16.0758 -68.3111 112 112 102 0.63826 -0.0616746 0.767346 
-52.0108 -16.0418 -68.4055 89 88 79 0.624584 -0.0735654 0.777485 
-53.4482 -14.6886 -67.9476 50 46 58 0.626455 0.0180575 0.779249 
-52.2926 -15.87 -68.4392 125 127 115 0.581056 -0.122095 0.804653 
-53.471 -15.0188 -67.9534 53 50 60 0.564238 0.0667989 0.822906 
-52.1982 -16.4253 -68.4109 94 92 86 0.705444 0.0267534 0.70826 
-52.1488 -16.0622 -68.2911 101 101 91 0.648834 -0.0647395 0.758171 
-52.4406 -13.4583 -68.6614 72 68 76 0.421696 0.122701 0.898397 
-50.7724 -13.5208 -69.5608 72 67 78 0.536374 -0.0233206 0.843658 
-50.6605 -14.6849 -69.3028 62 58 68 0.631801 0.178985 0.754183 
-52.6608 -15.631 -68.2488 54 56 48 0.571302 -0.0123303 0.820647 
-52.566 -13.5075 -68.5443 72 70 77 0.521291 0.142437 0.841408 
-52.4742 -16.7624 -68.1501 71 67 69 0.650303 0.0209775 0.759386 
-50.4348 -14.7206 -69.4223 53 48 58 0.491969 0.00133325 0.870612 
-52.0608 -16.0387 -68.4673 92 92 83 0.520412 0.0040342 0.853906 
-51.0044 -14.5361 -69.1983 47 48 58 0.642317 0.205851 0.738278 
-52.7396 -16.5242 -68.1971 94 89 89 0.536517 -0.114864 0.836036 
-52.0236 -15.9608 -68.5774 98 98 89 0.479382 -0.156862 0.863474 
-52.8116 -15.5271 -68.2753 84 86 79 0.601634 0.249765 0.758719 
-50.2176 -16.3578 -69.3838 92 87 96 0.681984 0.199492 0.703634 
-50.3409 -16.4072 -69.2678 75 69 78 0.685116 0.199503 0.700581 
-51.2929 -15.1666 -68.9177 47 48 52 0.415064 0.200932 0.887327 
-53.2982 -15.8844 -67.8573 60 56 66 0.585165 0.0552577 0.809029 
-51.0947 -14.397 -69.1236 26 27 35 0.319496 0.122675 0.939613 
-51.2853 -15.1435 -68.9378 38 39 45 0.423253 0.245517 0.872112 
-50.245 -16.3895 -69.3157 98 92 101 0.671844 0.193059 0.71509 
-51.0595 -15.1343 -69.128 46 44 53 0.528594 0.372455 0.762801 
-51.5137 -15.3783 -69.0847 45 46 51 0.581314 0.291453 0.75969 
-50.6972 -14.8738 -69.2673 69 65 75 0.626986 0.0294557 0.778473 
-52.1707 -13.9308 -68.5465 88 93 89 -0.0451581 0.874425 0.483055 
-51.0191 -15.7566 -69.1057 94 90 98 0.467257 0.38055 0.79803 
-53.0859 -15.8004 -68.1129 67 64 70 0.542146 0.121289 0.831485 
-50.7871 -14.7348 -69.1887 24 21 31 0.631801 0.178985 0.754183 
-51.9605 -14.0357 -68.7827 37 41 37 0.667748 0.126977 0.733477 
-52.7651 -13.3832 -68.5333 72 68 77 0.482826 0.0174839 0.875542 
-51.632 -15.4474 -68.7447 60 64 61 0.466414 0.249264 0.84872 
-52.0283 -13.7703 -68.7798 91 92 94 0.730127 0.213278 0.649175 
-51.7665 -13.6623 -69.0024 81 80 86 0.719776 0.223271 0.657322 
-51.8014 -13.8689 -68.8692 84 88 86 0.724227 0.223681 0.652274 
-50.9508 -15.4717 -69.1506 82 78 87 0.400237 0.419371 0.814824 
-51.5226 -15.0465 -68.2631 75 94 74 0.68818 -0.394424 0.608965 
-52.847 -16.645 -68.1136 103 97 103 0.587895 0.27097 0.762204 
-51.2166 -14.345 -68.8144 42 45 47 0.655427 -0.00969977 0.755196 
-50.7114 -15.5444 -69.2207 62 57 66 0.31336 0.30742 0.898498 
-50.7209 -15.3947 -69.1851 55 50 59 0.525841 0.357572 0.771773 
-50.5543 -15.5169 -69.3249 76 71 81 0.292168 0.280539 0.914295 
-53.505 -13.7888 -68.0615 71 67 77 0.621356 0.0585646 0.781337 
-53.5812 -14.5579 -67.8686 89 85 94 0.511654 0.224517 0.829338 
-50.144 -16.2501 -69.2823 94 88 98 0.711259 0.210109 0.670794 
-52.1481 -14.0142 -68.4782 86 100 86 0.477724 0.655403 0.585002 
-51.1815 -16.7966 -68.9631 87 84 86 0.546654 -0.0205509 0.837106 
-50.1714 -15.7035 -69.4866 110 104 113 0.574827 0.15759 0.802957 
-50.5524 -15.9261 -69.272 92 86 93 0.489354 0.0284666 0.87162 
-50.7266 -15.6975 -69.1932 63 58 67 0.362892 0.0704516 0.929164 
-51.3216 -16.3058 -68.8386 86 85 83 0.567577 -0.112348 0.815619 
-50.7696 -14.4992 -69.2925 51 47 58 0.429175 0.276444 0.859877 
-53.4424 -13.8117 -68.1564 93 89 99 0.555188 0.163115 0.815573 
-51.6916 -14.0958 -68.8286 86 94 89 0.512306 0.249188 0.821856 
-52.376 -14.2703 -67.9325 93 113 91 0.147566 0.803412 0.576847 
-50.4409 -15.5613 -69.3933 59 53 63 0.307737 0.272734 0.911545 
-52.0291 -13.3441 -68.8812 63 59 67 0.689961 0.323064 0.647752 
-53.4061 -14.6786 -67.9638 53 51 59 0.549725 0.146692 0.822365 
-50.389 -15.4346 -69.4022 48 43 52 0.507583 0.337855 0.792599 
-50.3426 -15.5454 -69.3991 83 77 87 0.312906 0.263424 0.912523 
-52.5058 -17.0772 -68.2299 108 102 105 0.420363 0.433248 0.79724 
-50.3959 -15.6854 -69.3441 62 56 65 0.292664 0.310312 0.904464 
-53.2431 -13.3862 -68.1023 63 59 70 0.523616 0.225723 0.821508 
-50.4826 -15.6764 -69.3205 90 84 94 0.474324 0.287705 0.832011 
-50.5548 -15.1091 -69.3434 79 74 83 0.539486 0.146326 0.829183 
-50.3147 -15.422 -69.468 50 45 54 0.537325 0.189199 0.82188 
-50.24 -15.6625 -69.5021 79 73 83 0.507033 0.340688 0.791739 
-51.3722 -13.6149 -69.1552 96 92 100 0.642249 0.41323 0.645568 
-52.267 -13.4568 -68.7853 98 95 104 0.37639 0.06251 0.92435 
-50.1024 -15.8778 -69.5475 87 81 90 0.486998 0.325194 0.810606 
-50.2549 -15.9072 -69.4417 74 69 78 0.484853 0.356839 0.798488 
-50.1975 -15.5278 -69.5104 83 77 87 0.515646 0.342158 0.785517 
-53.6745 -15.0288 -67.8053 50 45 55 0.607334 0.155224 0.779135 
-52.4878 -15.8723 -68.4087 99 100 85 0.56819 0.0235018 0.822562 
-53.3789 -16.4151 -67.9293 66 60 70 0.663232 0.216916 0.71629 
-53.1424 -14.465 -68.1566 84 83 86 0.506899 0.241894 0.82737 
-52.8612 -13.6685 -68.4225 71 70 77 0.440053 0.257332 0.86031 
-50.2465 -16.2856 -69.328 91 85 95 0.479595 0.382707 0.789636 
-50.3665 -16.3279 -69.2422 88 83 91 0.499582 0.358221 0.78873 
-50.315 -16.5023 -69.2582 85 79 88 0.496573 0.336903 0.799945 
-51.1494 -13.6587 -69.2757 70 67 77 0.403817 0.236926 0.883628 
-53.3681 -14.3375 -68.1195 57 55 61 0.396709 0.236243 0.887024 
-50.436 -16.6286 -69.1856 92 86 94 0.43659 0.294659 0.850038 
-50.2329 -16.7368 -69.2926 80 74 83 0.539721 0.233518 0.808808 
-51.5839 -13.5039 -69.1354 79 77 85 0.506761 0.129231 0.852345 
-51.6521 -13.7145 -69.0313 73 72 78 0.500118 0.126117 0.856724 
-51.9793 -14.3732 -67.9995 105 129 100 0.272184 0.647831 0.711499 
-50.9986 -14.7022 -69.1216 43 41 50 0.541194 0.172403 0.823035 
-51.6677 -13.9199 -69.0144 51 53 56 0.429936 0.0987878 0.897439 
-53.1887 -15.4763 -68.0892 68 69 72 0.58379 0.0123626 0.811811 
-53.2958 -14.6982 -68.2321 81 81 85 0.548853 0.140542 0.824019 
-50.6938 -16.1978 -69.1473 116 112 117 0.66386 0.120297 0.738118 
-50.2402 -15.542 -69.4861 57 51 61 0.693273 0.133264 0.708247 
-52.584 -13.2523 -68.5641 85 83 92 0.510989 0.40324 0.759136 
-51.5594 -15.0915 -67.8571 111 133 107 0.524881 -0.63627 0.565386 
-51.0848 -15.4177 -69.0334 75 72 78 0.513461 0.396098 0.761226 
-52.0698 -14.2669 -68.6447 91 106 89 0.533891 0.139724 0.833929 
-52.8761 -13.6073 -68.461 91 88 96 0.491848 0.0482204 0.869345 
-51.6157 -14.0546 -68.9821 48 51 53 0.465506 0.106118 0.87866 
-51.7438 -13.7252 -68.9763 72 72 77 0.425646 0.0956664 0.899819 
-51.7423 -13.7594 -69.0187 82 82 87 0.475296 0.073873 0.876719 
-53.5757 -13.3967 -67.8984 80 75 87 0.577554 0.0123468 0.816259 
-51.2021 -14.9351 -69.1008 35 35 42 0.588804 0.303226 0.749242 
-50.7205 -14.1449 -69.3988 61 57 68 0.546028 -0.0460842 0.836498 
-50.6241 -13.924 -69.4797 107 103 114 0.528635 -0.0430123 0.847759 
-50.838 -16.4612 -69.0399 80 76 80 0.426039 0.0639739 0.90244 
-50.7323 -16.3295 -69.1073 79 75 80 0.463595 0.042145 0.885044 
-52.2178 -14.3083 -68.3922 111 129 109 0.243334 0.436792 0.866026 
-52.311 -14.2707 -68.3359 114 130 112 0.574853 0.147819 0.804794 
-50.8054 -16.6462 -69.0285 90 86 90 0.412846 0.162549 0.896178 
-52.6356 -15.9702 -68.1419 102 103 97 0.529339 0.274879 0.802647 
-50.6039 -16.8126 -69.0931 120 115 122 0.42761 0.0526081 0.902431 
-51.2896 -13.123 -69.2786 93 88 98 0.528553 0.198397 0.825391 
-50.436 -16.794 -69.1704 88 82 90 0.426379 0.0554969 0.902841 
-51.4271 -13.5538 -69.1816 82 79 88 0.64456 0.405957 0.647874 
-51.7313 -15.7527 -68.718 108 106 102 0.345285 0.51873 0.782111 
-51.496 -15.8318 -68.7955 68 65 65 0.390636 0.378085 0.839318 
-51.6377 -15.5105 -68.8017 47 49 48 0.409174 0.431638 0.803906 
-52.1622 -14.0982 -68.2737 100 117 98 0.39063 0.693905 0.6049 
-51.2178 -13.5775 -69.2418 76 73 83 0.553131 0.146809 0.820057 
-53.4723 -14.8174 -67.9367 42 39 47 0.500443 0.196871 0.843089 
-52.2581 -13.6724 -68.6925 73 71 76 0.454996 0.114812 0.883061 
-51.293 -13.4176 -69.2469 76 73 82 0.447379 0.0817194 0.890603 
-51.3798 -13.6351 -69.1573 83 81 90 0.498879 0.125804 0.857493 
-51.3345 -14.7487 -68.8069 43 48 49 0.686504 -0.189753 0.701931 
-50.5365 -15.9978 -69.2933 107 101 109 0.533772 0.250546 0.80766 
-52.4862 -15.5207 -68.4082 81 86 73 0.562521 -0.00681018 0.826755 
-51.0357 -13.7892 -69.2911 96 93 103 0.589196 0.164251 0.791119 
-50.749 -13.6807 -69.4909 78 75 86 0.57936 0.151203 0.800924 
-52.6694 -13.3521 -68.5713 76 72 81 0.465314 0.112415 0.877978 
-50.9345 -13.5663 -69.3679 69 66 76 0.577973 0.150841 0.801994 
-51.1076 -13.5434 -69.2708 69 66 76 0.615952 0.142373 0.774811 
-50.891 -13.6507 -69.3674 70 67 78 0.559944 0.127861 0.818605 
-50.0856 -16.1931 -69.4464 70 64 74 0.469049 0.369796 0.802025 
-50.1717 -16.4329 -69.3577 65 59 69 0.483817 0.408882 0.773781 
-53.2006 -15.7228 -68.0331 60 57 65 0.593615 -0.0041128 0.804739 
-51.808 -16.3144 -68.5401 67 64 60 0.530713 0.270836 0.803114 
-52.5864 -16.8384 -68.3588 98 94 94 0.53821 0.372357 0.756096 
-52.7685 -16.7237 -68.2285 72 67 71 0.489946 0.33993 0.802746 
-51.1157 -15.5574 -68.9518 125 120 127 0.442477 -0.00393897 0.896771 
-50.9809 -15.3535 -69.0415 52 48 56 0.428295 0.185643 0.884364 
-51.1561 -15.6012 -69.0689 77 73 80 0.50052 0.377415 0.779126 
-53.2152 -14.4198 -67.9871 79 82 84 0.596346 0.0823044 0.798497 
-51.2289 -13.0603 -69.3374 74 71 82 0.340732 0.406078 0.84794 
-51.9016 -13.8933 -68.8317 66 69 69 0.487777 0.119426 0.864761 
-51.6331 -15.6522 -68.7583 91 93 91 0.483055 0.209174 0.850238 
-51.4748 -15.5384 -68.835 40 40 42 0.50426 0.194178 0.841437 
-51.6571 -15.5512 -68.7276 80 82 79 0.54655 0.143673 0.82501 
-53.5823 -15.1091 -67.9155 46 43 51 0.68535 0.322423 0.652946 
-52.2224 -13.6604 -68.6623 77 76 81 0.728179 0.216738 0.650215 
-50.0576 -16.7493 -69.3714 92 86 96 0.677244 0.165887 0.716814 
-51.8221 -15.3179 -68.2301 93 114 89 0.684993 -0.108001 0.7205 
-50.9449 -15.5895 -69.0724 112 107 114 0.45249 0.25443 0.854703 
-50.569 -16.5101 -69.1472 89 85 91 0.685116 0.199503 0.700581 
-50.5869 -14.0934 -69.5067 77 72 83 0.42955 0.141281 0.891923 
-53.0766 -14.9971 -67.7322 69 71 75 0.239392 0.399978 0.884709 
-50.4451 -16.3588 -69.2449 94 89 95 0.659949 0.176088 0.730384 
-51.9692 -14.1842 -68.1592 105 126 103 0.344182 0.667159 0.660634 
-53.3141 -14.949 -68.0538 62 68 65 0.750345 0.175743 0.637258 
-50.7024 -15.0718 -69.2341 82 77 87 0.614878 0.171558 0.769736 
-50.6704 -15.1951 -69.2188 63 58 68 0.61813 0.161711 0.769262 
-53.4956 -15.5546 -67.87 28 24 35 0.668451 0.369537 0.645458 
-53.712 -13.5945 -68.0528 78 73 84 0.561711 0.06367 0.82488 
-53.852 -13.8335 -68.0037 40 35 46 0.547588 0.0577149 0.834755 
-53.6424 -13.6982 -68.0408 74 69 80 0.588914 0.0235566 0.807852 
-53.8572 -13.588 -67.9366 52 47 59 0.469726 0.115647 0.875205 
-53.6896 -13.5291 -68.0219 83 77 89 0.454147 0.108939 0.884242 
-53.3576 -14.2185 -68.1688 55 56 60 0.523805 0.129857 0.841882 
-50.6695 -14.311 -69.4143 64 60 71 0.446401 0.105615 0.888578 
-52.8119 -16.9078 -68.1031 67 62 70 0.756904 0.285233 0.587995 
-51.4205 -13.1472 -69.2549 116 112 121 0.532644 0.146071 0.833639 
-51.2087 -16.655 -68.8755 92 88 87 0.658641 0.195896 0.72651 
-52.6953 -16.0217 -68.2872 114 113 104 0.64442 0.212736 0.734484 
-53.1698 -16.7217 -67.93 54 49 59 0.562168 0.0462632 0.825728 
-53.2348 -16.1077 -67.9782 62 56 66 0.699997 0.332945 0.631784 
-50.8129 -14.5623 -69.1522 34 31 41 0.630345 0.178572 0.755498 
-51.6758 -16.1051 -68.6922 106 104 101 0.487537 0.371687 0.790036 
-51.554 -15.8789 -68.7547 87 85 84 0.512293 0.297918 0.805482 
-51.3848 -16.5493 -68.8706 68 67 67 0.575396 -0.115665 0.809655 
-51.7158 -14.3222 -68.8502 90 99 91 0.552752 0.336808 0.76225 
-52.8456 -16.3877 -68.0592 87 83 89 0.576691 0.0848498 0.812544 
-53.1955 -14.2898 -68.1767 71 75 75 0.537302 0.139846 0.831715 
-52.1099 -13.6127 -68.7895 84 83 89 0.440094 0.0964015 0.892762 
-50.7287 -14.1201 -69.3629 58 54 65 0.45753 0.109071 0.88248 
-52.0493 -15.6129 -68.5084 116 125 106 0.481671 0.212902 0.850097 
-52.7868 -15.9085 -68.1847 94 93 91 0.503776 -0.00671702 0.863808 
-51.5676 -15.2509 -68.5949 72 81 75 0.567104 -0.262344 0.780749 
-50.3092 -14.9981 -69.4596 128 122 131 0.626821 0.414001 0.660074 
-53.2399 -14.9654 -68.1321 58 57 60 0.498492 0.210609 0.840922 
-52.0474 -13.9572 -68.7325 62 67 63 0.433888 0.108121 0.894456 
-50.179 -15.9964 -69.5493 99 92 101 0.443649 0.385991 0.808818 
-53.561 -14.313 -68.0256 82 79 87 0.596157 0.225699 0.770491 
-53.618 -13.9416 -68.0363 83 79 90 0.608473 0.158535 0.777578 
-53.3107 -14.6827 -68.1054 34 40 45 0.461946 0.191611 0.865963 
-53.3713 -15.7862 -67.9034 67 63 73 0.590024 0.00962743 0.807328 
-52.2274 -15.1514 -67.3646 100 109 98 0.743136 0.222785 0.630964 
-50.6023 -13.9735 -69.516 86 81 92 0.456118 0.174528 0.872638 
-53.0316 -15.8644 -68.0443 79 76 82 0.661166 0.189565 0.725896 
-53.533 -13.8732 -67.7723 69 65 76 0.391418 0.36023 0.846774 
-52.0934 -14.9387 -67.3082 98 119 98 0.670813 0.19985 0.714192 
-50.8619 -14.1983 -69.2973 48 45 55 0.56751 0.00136093 0.823366 
-51.1429 -14.9841 -69.1432 36 35 44 0.530932 0.371814 0.761489 
-53.5195 -15.0716 -67.9244 35 34 39 0.721569 0.258496 0.642276 
-53.0884 -16.3755 -68.0549 77 73 80 0.660699 0.18242 0.728148 
-53.3078 -16.2802 -67.9544 72 67 78 0.641129 0.212675 0.737376 
-53.6244 -14.9975 -67.8689 79 76 84 0.740272 0.222861 0.634296 
-51.8003 -15.5309 -68.6674 116 119 111 0.4948 0.226847 0.838876 
-52.002 -15.3737 -68.3547 90 106 84 0.629332 -0.315475 0.710223 
-53.3191 -15.9131 -67.8232 66 61 70 0.684094 0.206314 0.699607 
-52.9752 -16.4828 -68.1085 91 87 95 0.734206 0.377732 0.564145 
-50.4308 -16.4564 -69.2518 70 65 73 0.586107 0.161217 0.794032 
-50.5105 -16.4693 -69.1903 80 75 82 0.586107 0.161217 0.794032 
-50.6269 -16.4535 -69.1411 116 112 118 0.586961 0.157624 0.794123 
-50.3039 -16.3344 -69.3076 98 93 101 0.561289 0.147394 0.814389 
-51.2509 -13.757 -69.1919 58 55 64 0.505882 0.116742 0.854666 
-52.933 -16.3967 -68.1347 111 106 112 0.577731 -0.109696 0.808823 
-50.9803 -14.2716 -69.2002 63 61 70 0.312787 0.107812 0.943685 
-50.976 -13.8688 -69.2768 37 34 44 0.520754 0.161716 0.83825 
-51.8305 -14.9288 -67.8855 81 112 78 0.0378193 0.80261 0.595304 
-50.7984 -13.9853 -69.4062 83 79 90 0.548407 0.20317 0.811154 
-51.7611 -13.9613 -68.8728 106 115 109 0.479764 0.0622172 0.875189 
-51.4675 -13.1977 -69.2315 84 81 91 0.480927 0.0623681 0.874539 
-53.0268 -13.4665 -68.4051 66 62 72 0.435219 0.26724 0.859748 
-51.2145 -14.4097 -69.117 48 50 58 0.658032 0.15581 0.736693 
-52.2034 -15.4885 -67.7832 108 115 99 0.518484 -0.609683 0.59955 
-52.749 -14.628 -67.3364 67 68 68 -0.289782 0.875414 0.386881 
-51.5903 -16.5255 -68.7178 108 105 104 0.472411 0.348343 0.80962 
-52.8985 -13.4948 -68.4075 78 75 84 0.431451 0.287122 0.855225 
-53.1638 -13.4389 -68.3523 67 63 73 0.420931 0.283172 0.86176 
-52.5851 -13.3446 -68.5827 75 72 81 0.50914 0.294765 0.808634 
-53.1356 -15.336 -68.1434 55 55 59 0.573991 0.0669418 0.816121 
-52.6592 -13.4833 -68.4625 74 72 80 0.509574 0.266474 0.818123 
-52.9137 -13.5129 -68.4187 84 81 89 0.344747 0.217811 0.913076 
-53.4454 -14.828 -68.0087 86 82 91 0.498492 0.210609 0.840922 
-51.3333 -13.8018 -69.1759 64 63 71 0.465314 0.112415 0.877978 
-51.8804 -15.838 -68.4999 98 98 88 0.482286 0.113058 0.868688 
-52.1271 -15.6682 -68.4906 108 111 99 0.482386 0.106723 0.869433 
-53.9445 -13.5478 -67.8159 94 87 100 0.598449 0.15828 0.78537 
-53.3996 -15.8669 -67.8689 64 60 71 0.639782 0.293434 0.710335 
-53.5191 -15.5341 -67.851 48 45 55 0.665979 0.287254 0.688446 
-53.4153 -15.4897 -67.9873 57 55 63 0.66189 0.381288 0.645384 
-52.8653 -15.8396 -68.0551 74 72 76 0.467539 0.112266 0.876814 
-51.5273 -13.562 -69.2438 81 78 86 0.574553 0.160515 0.802574 
-51.7591 -15.7704 -68.7436 108 107 102 0.443615 0.47308 0.761184 
-50.3937 -15.9737 -69.341 49 44 53 0.361156 0.200003 0.910805 
-52.8238 -14.3492 -67.8191 82 91 83 -0.0704289 0.885194 0.459859 
-50.7799 -16.1989 -69.0806 116 112 117 0.644606 0.159256 0.747743 
-52.1383 -14.6313 -67.8255 106 132 100 0.00959698 0.818485 0.574448 
-51.6771 -15.4454 -68.5047 97 106 94 0.620723 -0.119997 0.774793 
-50.5644 -16.3043 -69.1778 105 100 107 0.684602 0.169244 0.708997 
-50.6877 -16.3755 -69.1138 82 78 83 0.646374 0.158944 0.746282 
-50.7306 -16.2811 -69.0631 100 95 101 0.59622 0.161508 0.786407 
-50.6743 -15.9749 -69.1545 47 42 50 0.653984 0.149525 0.741584 
-50.7905 -16.0607 -69.0917 95 90 96 0.643655 0.165859 0.747127 
-50.5307 -16.386 -69.1678 85 80 87 0.607401 0.165104 0.777049 
-52.3475 -16.6448 -68.019 69 65 66 0.567828 0.150527 0.809267 
-51.2973 -14.5612 -68.7198 50 56 55 0.670715 -0.114007 0.732901 
-52.0033 -15.5081 -68.5617 81 85 72 0.48437 0.119296 0.866692 
-50.8369 -14.1237 -69.4164 57 53 63 0.4853 0.176608 0.856325 
-50.7296 -13.9555 -69.445 64 60 71 0.737391 0.222932 0.637617 
-50.8953 -14.6694 -69.0027 40 40 49 0.515013 0.120411 0.848683 
-50.267 -16.1098 -69.3256 59 53 63 0.625935 0.17514 0.759955 
-52.3112 -16.7947 -68.3076 115 111 108 0.583926 0.235127 0.777011 
-53.5756 -14.043 -68.1005 84 82 91 0.579083 0.144398 0.802379 
-53.6611 -14.2635 -68.0063 64 60 70 0.594671 0.141588 0.791404 
-51.1704 -13.2314 -69.3473 87 82 92 0.425646 0.0956664 0.899819 
-52.9457 -16.3063 -68.1553 72 67 73 0.717931 0.358148 0.596913 
-52.279 -16.0848 -68.2607 112 111 100 0.601456 -0.181198 0.778086 
-52.0901 -15.9342 -68.3642 99 99 88 0.65259 -0.035237 0.756892 
-52.7176 -16.9773 -68.124 32 27 33 0.572814 0.309672 0.758938 
-51.6856 -13.8934 -68.9846 58 61 63 0.515404 0.0343603 0.856258 
-50.0772 -15.6805 -69.4877 103 97 107 0.69323 0.185989 0.696305 
-52.525 -16.697 -68.2034 74 70 71 0.420994 0.549769 0.721469 
