ply
format ascii 1.0
comment Created by CloudCompare v2.11 alpha (Anoia)
comment Created 15/10/2019 14:54
obj_info Generated by CloudCompare!
element vertex 751
property float x
property float y
property float z
property uchar red
property uchar green
property uchar blue
property float nx
property float ny
property float nz
end_header
-52.3636 15.3691 -71.6788 92 85 96 0.581206 0.131622 0.803041 
-51.1905 17.9597 -72.7062 97 91 100 0.552006 0.344802 0.759211 
-53.4385 17.2923 -71.6462 68 71 75 0.651117 -0.00691207 0.758946 
-52.995 17.5436 -71.1337 81 79 85 0.271664 0.732382 0.624352 
-51.4395 18.2353 -72.5674 64 58 66 0.622368 -0.0496193 0.78115 
-52.5637 17.1846 -71.0387 122 144 120 0.2267 0.844418 0.48535 
-51.9492 16.203 -71.448 94 91 93 0.488917 0.116136 0.864565 
-52.993 15.5985 -71.7352 78 70 83 0.447408 0.560507 0.696892 
-52.9886 17.4261 -71.0838 77 75 81 0.15 0.895712 0.41857 
-52.3583 16.6357 -71.1751 118 130 117 0.361048 -0.730264 0.579964 
-52.9381 17.133 -70.7527 78 74 83 0.289837 0.712582 0.638922 
-51.5085 16.7295 -71.3883 130 151 125 0.689558 -0.26595 0.673633 
-52.5875 16.3988 -71.2784 76 75 79 0.48946 0.0888644 0.867486 
-52.7617 15.4687 -71.2428 85 77 91 0.627164 -0.155658 0.763175 
-52.6512 16.758 -70.9504 86 89 88 0.251723 0.660178 0.707673 
-52.3696 16.4606 -70.9182 85 81 87 0.660651 0.265852 0.702042 
-49.9903 16.176 -72.7607 82 74 87 0.524717 0.057369 0.849342 
-51.7296 17.6809 -72.3448 74 73 75 0.535241 0.375808 0.756496 
-49.9882 15.9509 -72.862 79 71 84 0.533723 0.149324 0.832371 
-52.9624 15.4676 -71.4109 90 83 95 0.544348 0.10887 0.831764 
-53.0837 16.4338 -71.7664 75 73 81 0.519509 0.107931 0.847621 
-52.5422 17.5472 -71.1965 128 145 127 0.247817 0.686627 0.68347 
-53.11 18.4389 -71.7573 110 103 112 0.583603 0.125585 0.802269 
-52.9231 18.6787 -71.9357 99 94 99 0.582065 0.201189 0.78786 
-53.0612 18.2893 -71.7679 62 56 65 0.571429 0.15748 0.8054 
-50.3042 16.8942 -72.9258 75 69 82 0.44996 0.0701772 0.890287 
-51.7716 16.0267 -72.3053 94 89 96 0.525267 0.11142 0.843611 
-51.7798 16.0647 -71.6148 99 96 97 0.566122 -0.0405372 0.823324 
-51.5729 15.7374 -71.8345 71 64 74 0.643581 0.0323903 0.764692 
-51.2974 16.2399 -71.9102 90 89 91 0.597997 0.14167 0.788879 
-51.7727 15.7427 -71.915 76 71 76 0.689351 -0.241352 0.683041 
-53.4493 18.4052 -71.6304 138 133 143 0.528267 0.0372407 0.848261 
-50.5399 15.9443 -72.5743 115 108 119 0.629565 0.172254 0.757612 
-50.2237 16.2989 -72.6511 73 66 78 0.621695 0.12612 0.773039 
-51.547 16.5638 -72.3053 31 33 35 0.31236 -0.119313 0.942441 
-53.1108 17.747 -71.1558 73 69 78 0.295347 0.797595 0.525939 
-51.0746 17.1029 -72.3273 37 39 44 0.556961 0.377296 0.739893 
-51.2599 15.6555 -72.0989 90 84 94 0.594919 0.138665 0.791734 
-50.9909 15.7581 -72.3223 77 71 82 0.589199 0.154421 0.793095 
-53.2985 18.1986 -71.581 70 64 75 0.571157 0.160404 0.805016 
-50.6742 15.8932 -72.4621 73 66 77 0.597084 0.135498 0.790652 
-50.6844 16.3152 -72.2402 75 70 80 0.588363 0.158 0.79301 
-53.5675 17.7872 -71.5501 50 47 56 0.543708 0.0723997 0.836146 
-49.9267 16.4186 -72.8784 71 63 76 0.60036 0.177828 0.779708 
-50.3344 16.694 -72.5843 97 90 102 0.688528 -0.18638 0.700851 
-50.6834 16.6711 -72.3321 88 84 94 0.445707 0.652702 0.612638 
-53.1581 17.4628 -70.8234 79 74 85 0.15 0.895712 0.41857 
-53.3688 18.0043 -71.2911 68 63 74 0.369023 0.784779 0.49794 
-53.096 18.1291 -71.4924 94 89 99 0.369023 0.784779 0.49794 
-50.9879 16.9326 -72.558 33 31 41 0.570343 0.144447 0.808606 
-52.0078 15.9818 -71.5771 98 93 98 0.678338 -0.304527 0.668671 
-52.3004 15.8737 -71.4651 77 72 79 0.678272 -0.29023 0.675065 
-51.0608 17.6787 -72.1897 73 71 78 0.581314 0.291453 0.75969 
-52.3034 16.201 -71.3208 97 95 97 0.678272 -0.29023 0.675065 
-52.3001 16.5291 -71.1688 136 143 133 0.676518 -0.326091 0.660294 
-51.6365 17.7907 -72.361 105 101 106 0.531202 0.409502 0.741709 
-53.4223 17.424 -70.6454 83 76 89 0.15 0.895712 0.41857 
-50.6914 16.2995 -72.5604 94 89 100 0.549336 0.498938 0.670291 
-50.3506 16.353 -72.6013 96 89 101 0.691228 0.189357 0.697386 
-50.9331 18.9421 -72.8272 111 108 112 0.48943 -0.404877 0.772356 
-51.515 16.3541 -71.5981 116 119 111 0.691223 -0.265366 0.672155 
-52.7321 16.3791 -71.238 92 93 94 0.680701 -0.347696 0.644789 
-52.7578 15.8288 -71.8484 51 44 55 0.538508 0.133527 0.831973 
-53.2887 18.024 -71.6541 74 71 79 0.521539 0.198034 0.829927 
-50.7132 16.7757 -72.6863 98 94 105 0.519494 0.263647 0.812783 
-50.6877 16.9478 -72.0139 44 45 51 0.507183 -0.571213 0.645353 
-52.7965 16.5556 -71.212 110 114 112 0.601712 0.148552 0.784777 
-53.1312 16.781 -70.9838 90 85 95 0.589199 0.154421 0.793095 
-53.4646 17.4428 -71.6078 48 48 54 0.545692 0.182905 0.817782 
-53.3353 17.7926 -71.6019 79 77 83 0.51039 0.399507 0.761509 
-52.5099 16.1432 -71.3244 85 83 86 0.558805 0.124668 0.819875 
-52.7727 16.0299 -71.1616 88 81 93 0.558805 0.124668 0.819875 
-53.2232 17.1047 -70.961 81 76 87 0.595917 0.132261 0.792079 
-53.1015 15.759 -71.3359 95 89 100 0.596884 -0.125894 0.792389 
-52.6896 18.839 -72.0642 94 90 93 0.448652 0.105483 0.88746 
-52.481 16.5298 -71.0945 73 76 76 0.551676 -0.498017 0.669054 
-51.6874 15.6423 -72.2817 74 68 79 0.467788 0.175605 0.86622 
-51.9001 15.7614 -72.1969 107 101 111 0.476187 0.149992 0.866457 
-51.8638 18.06 -72.3963 113 108 115 0.652514 0.182704 0.735422 
-51.8332 15.591 -72.1886 39 33 44 0.497359 0.0892696 0.86294 
-52.4307 16.3926 -71.8779 67 66 72 0.508658 -0.0286376 0.860492 
-52.65 17.6143 -71.6401 75 84 76 0.166911 0.883903 0.436871 
-50.046 16.5816 -73.0167 89 83 96 0.499488 0.0891437 0.861722 
-53.4062 17.5775 -71.6561 61 61 65 0.546786 0.278908 0.789452 
-51.9204 15.6353 -72.1362 74 68 79 0.495704 0.116383 0.860658 
-52.0146 15.9359 -72.1112 68 63 71 0.482496 0.137649 0.865015 
-52.1932 15.6588 -72.0127 105 99 109 0.494825 0.104099 0.862735 
-51.9908 15.5383 -72.1128 70 64 75 0.492667 0.104245 0.863952 
-52.0462 17.649 -71.169 70 77 71 0.475914 -0.388797 0.788887 
-53.1586 17.2623 -71.647 48 53 53 0.624077 0.175474 0.761404 
-53.2609 16.786 -71.5551 51 49 56 0.484138 -0.0651992 0.872559 
-52.1359 15.7234 -72.0447 89 83 93 0.760911 -0.0528212 0.646703 
-51.9513 18.0161 -72.3282 91 90 94 0.581056 0.122095 0.804653 
-51.7725 15.5808 -72.2126 42 36 47 0.488917 0.116136 0.864565 
-51.7372 16.4998 -71.7503 69 79 73 0.272317 -0.902327 0.334141 
-52.0863 18.9633 -72.3086 58 55 58 0.602104 0.246815 0.759311 
-51.6916 18.1258 -71.9866 96 91 97 0.333871 0.327828 0.883776 
-51.9648 16.928 -71.0597 89 115 87 0.587903 0.119349 0.800079 
-51.6968 17.0274 -71.2745 122 155 118 0.579095 0.154126 0.800558 
-51.786 16.8063 -71.1904 39 61 38 0.587903 0.119349 0.800079 
-52.8297 18.0397 -71.8627 60 57 64 0.615061 0.113572 0.780257 
-51.9501 16.7534 -71.1266 76 92 76 0.592395 0.122615 0.796262 
-51.6322 16.8581 -71.2689 133 161 128 0.573433 0.11586 0.811019 
-51.523 16.4974 -71.7629 73 85 72 0.415076 -0.520076 0.746481 
-51.5646 17.0769 -71.3848 90 124 85 0.576518 0.194212 0.793668 
-52.3021 15.4332 -71.955 69 63 75 0.468173 0.168777 0.867368 
-51.9364 16.913 -71.1188 69 95 67 0.584586 0.119273 0.802517 
-51.7483 16.7996 -71.2267 60 83 58 0.599006 0.122759 0.791279 
-51.8531 17.1229 -71.204 68 100 65 0.608647 0.125876 0.783393 
-51.8077 15.6798 -72.2372 54 48 59 0.499488 0.0891437 0.861722 
-50.5436 16.6723 -72.7856 109 103 115 0.516328 0.0958283 0.851012 
-51.7784 18.0924 -72.3724 78 74 79 0.532629 0.233122 0.81361 
-51.7129 15.8765 -72.2889 76 71 81 0.460548 0.178039 0.869596 
-51.7263 16.8254 -71.1976 55 79 53 0.573433 0.11586 0.811019 
-52.1881 16.6663 -70.9133 94 105 94 0.566943 0.134705 0.812668 
-51.6292 16.6877 -71.2699 127 147 125 0.584161 0.0760701 0.808065 
-51.4961 16.702 -71.2533 138 164 136 0.557921 0.128072 0.819952 
-51.6393 17.0461 -71.2903 116 150 112 0.573433 0.11586 0.811019 
-52.1438 17.1032 -70.9098 85 118 83 0.47223 -0.429746 0.769621 
-51.9828 15.7745 -72.1216 82 76 85 0.478585 0.122161 0.869502 
-52.1372 15.7838 -72.0438 87 81 89 0.41332 0.285206 0.864769 
-52.0877 15.9747 -72.1532 80 75 82 0.489866 0.125718 0.862685 
-51.9155 15.9774 -72.2201 66 61 68 0.478171 0.156466 0.864217 
-53.7596 18.5812 -71.5392 134 129 141 0.57704 0.134989 0.805483 
-50.328 17.3436 -72.905 95 89 101 0.610227 0.198285 0.767011 
-50.5487 16.9708 -72.8278 101 95 107 0.537903 0.202666 0.818283 
-51.5918 15.866 -72.3585 56 50 61 0.499488 0.0891437 0.861722 
-51.8128 15.9842 -72.2861 93 88 96 0.492518 0.107069 0.863691 
-52.0559 17.7894 -72.2514 102 99 103 0.432915 0.0118426 0.901357 
-51.0456 19.2522 -72.6856 115 118 108 0.655321 -0.0616604 0.75283 
-50.8754 19.1375 -72.8047 94 93 92 0.657567 -0.0708149 0.75006 
-50.9307 19.2744 -72.7636 118 122 111 0.627998 -0.113779 0.769852 
-52.1998 17.4743 -71.2748 147 174 144 0.454657 0.464505 0.759949 
-52.1527 16.6982 -71.3372 65 82 66 0.375128 -0.732237 0.568426 
-50.8671 19.1261 -72.8372 76 76 74 0.627998 -0.113779 0.769852 
-50.9522 17.3418 -72.6923 85 83 92 0.527479 0.281847 0.801454 
-50.8639 17.5064 -72.6957 98 94 103 0.502218 0.36657 0.783201 
-52.1519 19.0038 -72.2414 59 56 57 0.635799 0.17534 0.751676 
-53.2819 18.4066 -71.6705 91 88 97 0.554658 0.254674 0.792146 
-53.0771 18.2914 -71.7705 45 43 51 0.550786 0.262055 0.792441 
-51.8259 16.6145 -71.2218 70 78 70 0.499633 -0.321986 0.804172 
-52.9474 15.987 -71.743 69 64 75 0.571137 0.0758653 0.817341 
-51.2768 15.758 -72.5132 86 79 91 0.530691 0.0401829 0.846612 
-52.6257 16.4104 -71.8832 69 67 70 0.562526 0.0578034 0.824756 
-53.1373 16.0978 -71.6398 78 73 85 0.568081 0.147611 0.809627 
-53.2853 18.6939 -71.7376 111 107 116 0.619642 -0.172038 0.765798 
-53.6171 18.636 -71.6353 55 51 61 0.556408 0.0665424 0.828241 
-51.2335 16.8864 -72.323 28 33 36 0.506668 -0.440652 0.741022 
-53.5499 18.5392 -71.6452 103 99 109 0.550759 0.0905948 0.829733 
-53.6966 18.5591 -71.6068 86 81 92 0.562168 0.0462632 0.825728 
-53.1175 18.7355 -71.8083 98 94 103 0.603537 -0.0763423 0.793672 
-51.5849 18.9005 -72.5329 125 120 122 0.665847 -0.156224 0.72955 
-53.2323 18.5139 -71.7417 101 98 107 0.616845 -0.148583 0.772933 
-53.6108 18.4282 -71.6353 84 80 91 0.56785 0.0521351 0.82148 
-53.7926 18.3833 -71.5443 59 55 66 0.553566 0.0725755 0.829637 
-51.2161 17.2625 -72.4894 40 41 46 0.602719 0.27512 0.749025 
-53.067 18.5754 -71.8583 102 98 107 0.6328 -0.0858281 0.769543 
-50.8933 17.0312 -72.654 52 50 60 0.497409 0.290286 0.817508 
-50.6441 16.3028 -72.6742 92 87 99 0.546613 -0.0663845 0.83475 
-53.2572 18.2962 -71.7467 86 83 92 0.616845 -0.148583 0.772933 
-51.1275 17.2787 -71.6039 60 85 58 0.442092 -0.582227 0.682324 
-53.5544 18.2988 -71.6696 91 87 97 0.6081 -0.064387 0.791245 
-51.0184 17.3729 -72.5338 74 71 80 0.452389 0.589274 0.669402 
-52.1261 16.2825 -72.1308 62 58 63 0.473412 -0.389394 0.790097 
-51.9536 16.8136 -71.0454 112 132 110 0.496972 0.591312 0.635113 
-51.3131 16.0756 -72.4566 70 65 76 0.360117 0.0377018 0.932145 
-52.5041 18.4057 -72.1109 81 77 83 0.464488 0.103063 0.879562 
-52.8819 18.2791 -71.9162 103 101 108 0.644587 -0.0180986 0.764316 
-52.939 18.2971 -71.8789 85 83 90 0.607217 0.00963837 0.794477 
-52.9998 18.5985 -71.9082 60 57 65 0.631386 -0.0856362 0.770726 
-52.6707 16.0389 -71.821 44 40 48 0.56292 0.0666429 0.82382 
-53.199 17.3863 -71.3273 81 85 85 0.308673 0.554971 0.772482 
-50.3056 15.9272 -72.8433 81 74 86 0.485047 0.0857619 0.870273 
-52.7055 17.822 -71.6839 61 62 64 0.777426 -0.0525864 0.626773 
-51.595 16.4669 -72.2126 46 46 50 0.402728 0.0521807 0.913831 
-52.4763 17.3679 -71.0649 102 128 99 0.512221 0.388637 0.765892 
-53.2501 16.9547 -71.6436 58 57 63 0.49233 -0.472438 0.731036 
-52.1049 17.1811 -70.987 110 144 106 0.566128 0.186686 0.8029 
-52.196 15.5429 -71.9968 92 86 97 0.46112 0.102941 0.881346 
-51.3006 17.0516 -72.4056 37 42 44 0.567438 0.2211 0.793176 
-53.0159 15.242 -71.631 78 72 85 0.561092 0.109304 0.820505 
-51.1284 17.9973 -72.6584 83 78 88 0.615875 0.195053 0.763317 
-52.8678 15.2927 -71.7172 79 73 86 0.50617 0.0893241 0.857795 
-52.925 15.4535 -71.7108 99 92 105 0.574823 0.138136 0.806534 
-53.5385 17.7678 -71.5565 53 51 59 0.556948 0.220619 0.80071 
-50.579 17.9982 -72.9837 111 106 116 0.584945 0.167775 0.79353 
-52.8568 15.4474 -71.7274 89 82 95 0.511862 0.092677 0.854054 
-53.0401 15.277 -71.5856 75 69 82 0.514066 0.0807211 0.853944 
-52.7317 15.5125 -71.7538 53 46 59 0.571848 0.0727288 0.817129 
-52.7601 15.3817 -71.7182 49 42 55 0.521921 0.102084 0.846863 
-51.1381 18.8267 -72.7942 105 101 106 0.666223 -0.308108 0.679129 
-51.799 15.9859 -72.2658 92 88 96 0.460548 0.178039 0.869596 
-53.2894 16.9245 -71.5683 75 74 81 0.479869 -0.0508744 0.875864 
-53.6816 18.3435 -71.6238 94 90 101 0.564371 0.12167 0.816506 
-53.7708 18.1329 -71.5425 51 47 58 0.576712 0.128322 0.806807 
-52.4533 16.9971 -71.0526 84 117 83 0.462998 -0.318605 0.827118 
-50.4135 16.018 -72.8162 52 45 58 0.492311 0.11626 0.86262 
-53.7179 18.2031 -71.5744 78 74 85 0.556408 0.0665424 0.828241 
-50.6727 19.2261 -73.042 69 67 70 0.469848 -0.295021 0.831989 
-51.6216 18.6945 -72.6007 73 70 75 0.648154 0.145872 0.747407 
-52.0023 18.5592 -72.2997 91 87 93 0.661948 0.136592 0.736999 
-51.2298 17.1557 -72.4373 37 40 44 0.646642 -0.089041 0.757579 
-51.436 18.795 -72.6599 88 85 89 0.658512 0.110985 0.744341 
-51.736 18.6512 -72.4886 72 69 75 0.660485 0.136291 0.738366 
-51.8029 18.8066 -72.4931 94 91 95 0.654939 0.129794 0.744452 
-51.5843 16.5962 -71.6072 121 142 121 0.501485 -0.23464 0.832741 
-51.9199 15.5301 -72.1566 55 49 61 0.463075 0.137047 0.875659 
-52.7469 16.308 -71.7835 66 64 70 0.53293 0.0991163 0.840334 
-50.4112 16.9189 -72.9392 65 59 71 0.493754 0.101027 0.863713 
-51.1415 16.8823 -72.4822 31 32 40 0.582867 0.0973867 0.806711 
-51.9394 18.438 -72.3461 83 80 86 0.683379 0.189742 0.704976 
-50.4927 17.8989 -72.9606 77 72 83 0.496636 0.233801 0.835877 
-52.2278 18.665 -72.2333 81 78 83 0.563019 0.210173 0.799272 
-52.2558 16.9582 -70.9675 119 148 116 0.563567 0.144237 0.81338 
-52.7726 15.3559 -71.7474 54 47 60 0.535357 0.102454 0.838389 
-52.1077 18.8744 -72.2816 68 65 68 0.612734 0.202187 0.763988 
-52.1151 18.3506 -72.2447 87 83 90 0.68766 0.203349 0.696974 
-51.2338 18.6002 -72.7294 72 68 76 0.529583 0.117524 0.840078 
-53.2396 17.55 -71.5525 68 72 72 0.520815 0.245726 0.81754 
-51.8759 16.8898 -71.1857 32 57 31 0.512755 -0.241749 0.823796 
-51.5384 16.9718 -71.3171 106 139 101 0.510097 -0.245031 0.824476 
-51.6568 16.7536 -71.2579 116 139 112 0.482128 -0.115882 0.868403 
-51.1465 16.6269 -72.5118 41 39 48 0.451065 -0.0703495 0.889714 
-51.4972 16.7962 -71.3357 122 151 118 0.482128 -0.115882 0.868403 
-51.9931 16.6712 -71.1246 63 75 65 0.49572 -0.230319 0.837386 
-51.6685 16.5866 -71.3481 112 127 110 0.478295 -0.176214 0.860339 
-52.3426 15.6356 -71.9654 67 61 72 0.506181 0.0803685 0.858674 
-52.2494 15.85 -72.0424 56 50 58 0.483656 0.100703 0.869446 
-50.7523 19.0861 -72.9302 94 91 93 0.626986 -0.0294557 0.778473 
-50.7126 16.7146 -72.705 78 73 84 0.61324 0.226259 0.756798 
-53.4571 17.2396 -71.5492 86 88 90 0.494554 0.176732 0.850989 
-51.198 18.9847 -72.71 76 75 75 0.693856 -0.275947 0.665145 
-52.9392 15.1979 -71.6267 92 85 98 0.531783 0.139943 0.835238 
-51.4031 18.9591 -72.6086 130 128 129 0.681234 -0.276003 0.678043 
-51.0489 18.8665 -72.851 110 107 112 0.681894 -0.18933 0.706523 
-52.185 18.1076 -72.2528 135 131 136 0.48994 0.00400496 0.871747 
-51.0406 18.9534 -72.817 140 137 138 0.677287 -0.255371 0.689977 
-51.2157 17.7066 -72.5783 91 87 95 0.54051 0.282074 0.792643 
-51.3468 18.77 -72.6909 77 73 78 0.668431 -0.120586 0.733934 
-51.0256 17.3126 -72.6262 86 83 92 0.604738 0.274592 0.74759 
-51.1737 18.6549 -72.8087 80 75 83 0.661919 -0.0738684 0.745926 
-51.6395 16.4699 -72.115 81 82 82 0.493188 -0.584083 0.64468 
-53.3561 17.3866 -71.5245 60 59 67 0.600703 0.164928 0.782275 
-51.9118 16.7465 -71.0744 71 88 71 0.586519 0.119068 0.801135 
-50.8796 18.9175 -72.9105 79 76 81 0.688476 -0.0829664 0.720498 
-50.5284 17.0877 -72.8578 98 93 105 0.422798 0.0867631 0.902061 
-51.1316 18.8856 -72.7599 98 96 99 0.622964 -0.0409659 0.781177 
-51.0934 16.7581 -71.9083 47 57 53 0.583355 0.228675 0.779362 
-50.9594 18.7805 -72.8568 83 79 86 0.63154 -0.0827535 0.770914 
-50.9978 19.0811 -72.7602 139 139 136 0.638063 -0.123448 0.760024 
-53.266 18.4651 -71.7498 82 78 87 0.61033 -0.0884326 0.787196 
-52.7665 17.7298 -71.9015 118 119 121 0.60504 0.148633 0.782199 
-52.4399 18.505 -72.1402 55 52 57 0.546645 0.25074 0.798942 
-52.1212 18.6395 -72.2783 83 80 86 0.55681 0.19679 0.806992 
-51.3299 16.7183 -72.399 36 40 43 0.1808 -0.400653 0.898214 
-53.1488 17.0654 -71.6144 60 61 62 0.493524 -0.460512 0.73781 
-53.0235 16.9191 -71.7515 28 30 30 0.485905 -0.430279 0.76076 
-52.3598 18.734 -72.2283 74 71 76 0.557554 0.227037 0.798491 
-52.1802 17.3523 -71.0785 84 112 81 0.568081 0.147611 0.809627 
-51.5741 16.4093 -71.8617 73 77 75 0.489078 0.113305 0.86485 
-52.3385 15.4423 -71.9498 84 77 88 0.506181 0.0803685 0.858674 
-51.9031 18.5326 -72.363 82 78 84 0.549848 0.196483 0.811826 
-50.5843 17.9663 -72.8447 105 100 111 0.551119 0.254483 0.794674 
-53.375 17.6618 -71.6666 67 66 71 0.583745 0.135167 0.800607 
-50.8996 16.9235 -72.6934 53 50 61 0.590642 0.211274 0.778784 
-51.8662 18.2129 -72.3911 68 63 70 0.548815 0.193074 0.813341 
-53.4251 18.2391 -71.6686 65 62 71 0.551142 0.137416 0.823019 
-52.8666 18.5312 -71.9363 69 66 73 0.549943 0.272608 0.78946 
-51.0832 17.4524 -72.6257 96 94 103 0.535326 0.300227 0.789487 
-52.9506 17.5901 -71.4095 91 97 93 0.244777 0.668005 0.702747 
-51.1676 16.9343 -72.2358 31 37 38 0.598461 0.168175 0.783302 
-51.8893 18.9309 -72.4482 94 91 93 0.60984 0.226156 0.759571 
-51.4976 16.4283 -72.4063 55 53 58 0.508355 0.110888 0.853979 
-52.8405 16.1977 -71.8058 68 64 73 0.535962 0.0373927 0.843413 
-52.1414 16.8739 -71.0139 130 154 129 0.595704 0.122688 0.793779 
-52.0233 17.098 -71.0563 62 92 59 0.579888 0.118914 0.805971 
-51.9585 15.933 -72.1926 74 69 77 0.467788 0.175605 0.86622 
-51.6337 16.0396 -72.3301 57 53 62 0.462156 0.171658 0.870026 
-51.87 16.156 -72.2801 98 95 101 0.466249 0.162237 0.86965 
-51.404 16.8759 -71.3018 81 113 76 0.526444 0.434027 0.73108 
-53.3546 16.8393 -71.5016 59 58 67 0.506618 0.414804 0.755828 
-51.2204 19.2006 -72.6318 98 97 92 0.557607 -0.0695236 0.827188 
-50.8051 19.327 -72.8014 93 97 88 0.582507 -0.00959424 0.812769 
-51.9309 18.8022 -72.4425 73 70 74 0.654166 0.136222 0.743983 
-50.721 18.9245 -72.9608 115 110 118 0.623911 -0.029443 0.78094 
-52.2143 15.8565 -72.0075 56 51 59 0.70008 -0.00974266 0.713998 
-51.2858 17.2011 -71.5532 94 126 90 0.453709 -0.530159 0.716296 
-51.8649 18.7393 -72.4395 70 66 71 0.616638 0.138856 0.774904 
-51.8556 19.0525 -72.503 120 117 117 0.596076 0.141923 0.790286 
-53.0385 17.8668 -71.2552 65 63 70 0.514831 0.123269 0.848383 
-50.9657 16.9222 -72.4548 36 36 44 0.700581 0.199503 0.685116 
-51.2559 18.3106 -72.7102 94 89 98 0.591427 0.128958 0.79598 
-51.35 18.1021 -72.6367 71 66 75 0.557751 0.10922 0.822791 
-51.4355 18.4249 -72.5975 74 70 78 0.594747 0.129035 0.79349 
-52.5644 18.1953 -72.0771 103 100 105 0.539556 0.153097 0.827914 
-51.7161 16.0707 -72.3465 84 80 88 0.492518 0.107069 0.863691 
-51.8669 16.0893 -72.2245 63 59 66 0.465032 0.085186 0.881186 
-51.5823 16.6513 -71.4151 96 119 93 0.550476 -0.169493 0.817465 
-51.4297 16.6202 -71.5391 94 117 94 0.534528 -0.24015 0.810313 
-51.0483 17.7429 -72.5266 55 51 60 0.542535 0.300701 0.784369 
-51.7488 16.3031 -72.2752 100 97 102 0.46112 0.102941 0.881346 
-51.2929 16.7857 -72.3192 39 41 42 0.619302 0.185026 0.763041 
-53.3038 17.697 -71.5342 60 60 63 0.52416 0.0990877 0.845836 
-51.3549 15.749 -72.4221 78 71 83 0.505188 0.0834905 0.858961 
-51.5599 18.2318 -72.45 61 58 65 0.588591 0.317678 0.743398 
-52.5851 18.5836 -72.0921 109 104 110 0.523472 0.0572329 0.850119 
-51.0956 16.9406 -72.4966 32 32 40 0.593759 0.135419 0.793166 
-51.5321 18.2913 -72.5287 82 78 86 0.595915 0.0611559 0.800716 
-50.5707 18.872 -72.8456 113 108 116 0.72436 -0.114061 0.679921 
-51.5783 18.4029 -72.5491 98 94 102 0.587999 0.141417 0.796404 
-51.3281 18.1762 -72.6291 78 74 82 0.588865 0.125447 0.798436 
-50.507 18.1925 -73.0632 95 89 100 0.544348 0.10887 0.831764 
-51.1173 17.8376 -72.7201 38 34 43 0.551388 0.347649 0.758361 
-51.166 17.6494 -72.609 63 60 69 0.547027 0.395896 0.737583 
-50.9463 17.8583 -72.7521 107 103 113 0.596648 0.256606 0.760372 
-52.4497 16.1466 -71.9415 76 73 79 0.484725 -0.00667665 0.874641 
-53.2985 17.0424 -71.6002 55 55 61 0.476193 -0.260442 0.839887 
-50.8439 17.9038 -72.8361 112 107 117 0.604981 0.257472 0.753462 
-52.208 16.6813 -71.688 22 29 25 0.391634 -0.229069 0.891151 
-52.6222 17.7789 -71.9622 57 58 59 0.473297 -0.0366161 0.880142 
-51.1514 17.9908 -72.6897 92 87 96 0.592266 0.235969 0.770415 
-52.2136 15.8137 -72.0158 62 57 66 0.48388 0.131442 0.865207 
-52.1212 16.0515 -72.0835 89 85 92 0.408479 0.309827 0.858576 
-51.1303 18.6612 -72.7658 70 66 73 0.519315 0.126556 0.84516 
-51.346 18.6326 -72.6756 114 110 117 0.57936 0.151203 0.800924 
-51.4484 18.9527 -72.653 132 129 130 0.67097 -0.165841 0.7227 
-50.7464 18.9583 -73.0302 102 98 105 0.69161 -0.0800811 0.717818 
-52.8245 15.5062 -71.7406 68 60 73 0.525586 0.0204774 0.850494 
-51.665 19.0505 -72.5623 141 137 136 0.588068 -0.151132 0.794566 
-53.1757 17.0087 -71.7262 65 68 70 0.509945 -0.466757 0.72256 
-50.3288 15.9946 -72.8652 55 49 62 0.488224 0.101061 0.866847 
-51.2517 16.5936 -72.5028 36 37 45 0.549553 -0.515942 0.657111 
-50.463 15.796 -72.8664 65 59 71 0.478234 0.131478 0.868335 
-50.409 15.9034 -72.8712 67 61 73 0.48061 0.0887931 0.872427 
-53.2893 17.3832 -71.6189 70 80 70 0.483325 0.324857 0.812936 
-50.5052 16.0987 -72.7745 48 42 55 0.501226 0.122779 0.856562 
-52.9055 16.0964 -71.5095 60 55 66 0.506429 -0.503086 0.70031 
-50.6539 16.0263 -72.7546 82 76 89 0.463285 0.106258 0.879816 
-50.7478 15.9642 -72.6902 104 97 110 0.488455 0.0424149 0.871557 
-50.3092 15.8432 -72.9132 64 58 70 0.511862 0.092677 0.854054 
-50.6022 16.0138 -72.7736 76 70 82 0.53273 -0.0177122 0.8461 
-50.3345 15.8066 -72.939 60 54 67 0.478234 0.131478 0.868335 
-51.146 16.3476 -72.1614 56 52 61 0.521874 -0.586053 0.619831 
-51.6031 15.652 -72.3782 97 90 102 0.50507 0.0773783 0.859603 
-50.3776 16.1441 -72.8552 61 55 67 0.488224 0.101061 0.866847 
-50.7935 16.0059 -72.6552 76 69 82 0.456748 0.0997818 0.883982 
-50.7882 15.9166 -72.7134 109 103 116 0.510383 -0.0570182 0.858055 
-50.4346 15.9205 -72.8275 30 24 37 0.476715 0.182667 0.859869 
-53.274 16.5459 -71.5143 51 49 56 0.631744 -0.135907 0.76317 
-50.7026 16.2017 -72.7107 90 84 97 0.46971 0.0766589 0.879486 
-50.5699 15.8109 -72.7863 63 57 69 0.533177 -0.0233008 0.845682 
-50.5441 16.2389 -72.8118 62 57 69 0.501402 0.119932 0.856862 
-50.3361 15.9941 -72.8747 54 48 61 0.472525 0.192289 0.860084 
-50.7806 15.8224 -72.6443 57 51 63 0.566711 0.147256 0.81065 
-52.1776 18.4949 -72.1866 115 111 117 0.404441 0.0411072 0.91364 
-50.9335 15.9597 -72.5899 72 66 78 0.477423 0.0798038 0.875042 
-51.6221 16.2851 -71.6893 79 78 80 0.510327 -0.316371 0.799672 
-50.34 16.2359 -72.8885 42 36 48 0.514831 0.123269 0.848383 
-50.1594 16.1235 -72.9979 93 86 99 0.474624 0.134164 0.869903 
-51.5402 18.9398 -72.743 131 129 130 0.658821 0.123436 0.742104 
-51.4663 17.5114 -72.0615 81 89 80 0.602632 0.164629 0.780854 
-49.9982 16.0702 -73.0776 62 55 68 0.483012 0.0770019 0.872221 
-51.5399 17.8671 -72.3248 90 87 92 0.711182 0.199875 0.673996 
-50.3719 16.2302 -72.9204 43 37 50 0.493365 0.119386 0.86159 
-50.8419 18.3587 -72.8192 65 61 70 0.519471 0.0315246 0.853906 
-50.6907 18.7627 -72.9923 95 91 100 0.626986 -0.0294557 0.778473 
-51.6968 17.7784 -72.3227 91 88 92 0.578386 0.335367 0.743639 
-51.1344 16.9054 -72.3068 35 39 42 0.583578 -0.0941255 0.806583 
-52.3379 18.5914 -72.2155 67 64 69 0.565579 0.170428 0.806892 
-53.1171 16.3758 -71.6825 78 75 84 0.550824 -0.149955 0.82104 
-52.49 16.1393 -71.9791 84 81 87 0.476292 0.0120074 0.879205 
-52.3302 18.4579 -72.168 60 57 63 0.555188 0.163115 0.815573 
-52.3544 16.3547 -72.0141 61 62 63 0.471132 0.0310488 0.881516 
-52.5141 18.4334 -72.0752 48 45 50 0.558817 0.14378 0.816732 
-52.2289 18.5241 -72.2026 95 92 98 0.539913 0.209541 0.815222 
-52.3462 18.3278 -72.1788 83 80 86 0.492818 0.318509 0.809742 
-51.318 16.8269 -72.153 48 57 52 0.507409 -0.0805635 0.857931 
-50.9087 17.9856 -72.7828 89 84 94 0.587875 0.198005 0.784345 
-50.8957 17.7011 -72.763 104 100 111 0.549906 0.340265 0.762773 
-53.1828 16.2467 -71.6352 62 58 68 0.568081 0.147611 0.809627 
-50.833 17.7838 -72.7933 91 87 97 0.55335 0.333946 0.763075 
-50.7606 17.6048 -72.7914 88 84 95 0.578566 0.266424 0.770896 
-52.3533 16.598 -71.8022 31 34 35 0.414562 -0.181825 0.891672 
-53.1282 15.8866 -71.5785 109 103 115 0.522716 0.126675 0.843043 
-50.6461 17.6183 -72.8724 108 103 115 0.571544 0.266091 0.77623 
-50.3921 16.3796 -72.8214 76 69 82 0.453258 0.0702619 0.888606 
-50.8114 17.4126 -72.7675 74 71 81 0.559085 0.301046 0.772525 
-50.754 17.5488 -72.8238 102 98 109 0.573859 0.27033 0.77305 
-51.2924 17.2647 -72.4266 35 40 41 0.510288 0.304909 0.804138 
-51.6502 18.3335 -72.5254 60 56 64 0.678323 0.114291 0.725821 
-50.4572 17.6469 -72.9834 78 73 84 0.565955 0.280599 0.775216 
-51.2382 17.0343 -72.2146 46 53 50 0.576883 0.273427 0.769704 
-50.638 17.2905 -72.793 72 68 79 0.539564 0.212463 0.814696 
-52.9887 16.0694 -71.6691 50 45 57 0.51693 0.0571271 0.854119 
-51.9455 16.6246 -71.4128 45 58 47 0.462868 -0.398356 0.791875 
-52.8055 16.4608 -71.7838 48 47 53 0.468561 0.0764713 0.880115 
-53.5302 17.9108 -71.538 68 65 74 0.512694 0.123453 0.849649 
-50.6225 16.9262 -72.7823 65 60 71 0.588854 0.228394 0.775298 
-50.5842 17.7321 -72.8836 59 54 66 0.553131 0.146809 0.820057 
-50.5016 17.6669 -72.9569 70 65 77 0.589199 0.154421 0.793095 
-50.5217 17.3026 -72.8729 67 62 74 0.537392 0.212813 0.81604 
-50.4237 17.5425 -72.972 63 58 70 0.616103 0.202279 0.761249 
-50.6283 17.0918 -72.8128 92 88 99 0.541071 0.205759 0.815417 
-51.0939 17.2069 -71.6667 128 152 127 0.555657 -0.140766 0.819409 
-51.652 17.2074 -71.4665 64 101 59 0.570343 0.144447 0.808606 
-50.6959 17.7898 -72.8725 51 47 58 0.556687 0.153723 0.816375 
-50.2274 17.5419 -73.0431 82 76 88 0.588241 0.214608 0.77969 
-50.2985 17.588 -73.0741 75 69 81 0.592856 0.161414 0.788966 
-50.334 17.3323 -72.9841 90 84 97 0.618013 0.201895 0.759802 
-52.8852 16.6413 -71.8044 46 45 50 0.492787 -0.4273 0.758008 
-50.4457 17.18 -72.8904 78 73 85 0.539564 0.212463 0.814696 
-50.4989 17.6973 -72.9851 79 75 86 0.589469 0.151492 0.793458 
-52.1258 17.5627 -71.352 101 122 100 0.254641 0.627904 0.735455 
-50.3642 17.5317 -73.0328 43 38 50 0.539763 0.304114 0.784965 
-53.2062 17.6182 -71.3998 74 75 77 0.36382 0.38568 0.847872 
-53.0194 17.0467 -71.5492 79 89 84 0.481126 -0.422412 0.76817 
-52.0288 16.1032 -72.2058 85 81 87 0.442029 0.250635 0.861274 
-51.3654 16.6676 -72.2677 38 40 43 0.279629 -0.19147 0.940822 
-52.4439 17.0909 -70.9408 129 150 128 0.669217 0.0295864 0.742478 
-52.1949 15.9317 -72.0449 74 69 77 0.450032 0.0995399 0.887447 
-52.8353 18.375 -71.9429 119 116 124 0.605905 0.00686967 0.795508 
-52.9227 18.1776 -71.8822 61 59 66 0.607217 0.00963837 0.794477 
-53.2643 16.4812 -71.5522 68 64 75 0.609142 -0.132552 0.781906 
-51.5167 17.8523 -72.4247 86 85 90 0.576831 0.301997 0.758988 
-51.4954 18.9461 -72.6991 133 131 131 0.612937 0.161936 0.77336 
-51.9449 15.8347 -72.1519 69 64 72 0.418042 0.286351 0.862116 
-51.282 16.5591 -72.373 54 54 59 0.314733 -0.140335 0.938749 
-50.7416 18.8266 -72.8211 97 92 99 0.688264 0.0295573 0.724858 
-49.9707 16.4222 -73.0148 95 89 102 0.500708 0.0893615 0.860991 
-50.1807 16.5121 -72.972 66 59 72 0.502899 0.095451 0.859059 
-52.454 16.5928 -71.9139 53 54 55 0.498112 -0.391026 0.77394 
-51.9958 18.1662 -72.3124 76 72 78 0.582434 0.122385 0.803612 
-53.4868 18.2971 -71.6372 90 87 97 0.563399 0.163761 0.809792 
-52.3759 15.541 -71.9386 50 43 55 0.751537 -0.0153375 0.659512 
-52.9676 16.4188 -71.7408 70 68 76 0.473034 0.076746 0.877695 
-50.0615 16.4906 -73.0099 102 96 109 0.500627 0.0984138 0.860051 
-52.5672 15.5975 -71.9042 74 67 79 0.506294 0.0775659 0.858866 
-52.414 15.7983 -71.8843 95 89 99 0.509557 0.0687831 0.857683 
-50.8402 17.285 -72.7637 101 99 109 0.566314 -0.272904 0.777696 
-51.6657 15.7009 -72.3797 90 85 96 0.467664 0.0648383 0.881525 
-53.3215 18.4133 -71.7094 93 89 98 0.573736 -0.00136279 0.819039 
-52.4192 17.9649 -72.0976 122 119 124 0.417115 0.0894802 0.904438 
-50.8981 15.9137 -72.6113 75 69 81 0.509246 -0.054116 0.858918 
-51.3955 18.6446 -72.6808 110 105 111 0.663808 -0.088994 0.742589 
-53.127 17.0293 -71.6153 66 74 72 0.533447 0.460327 0.709601 
-50.9332 16.291 -72.6784 108 103 115 0.466285 -0.079338 0.88107 
-53.1333 16.815 -71.7947 57 55 60 0.503875 -0.428376 0.750069 
-53.3223 16.3637 -71.5816 72 67 77 0.606548 0.129021 0.784508 
-51.1672 15.6414 -72.5017 68 61 73 0.381918 0.150794 0.911811 
-51.0576 15.8757 -72.4613 65 59 71 0.558713 0.170174 0.811715 
-51.313 16.9492 -71.4869 119 153 114 0.484388 0.412627 0.771432 
-50.5158 17.0041 -72.8778 116 110 122 0.485044 -0.179481 0.855873 
-51.3145 18.6077 -72.7204 121 117 124 0.618472 0.100885 0.779304 
-51.8342 17.7836 -72.3036 83 81 84 0.481214 0.441797 0.757132 
-52.2955 16.3461 -72.0793 108 108 109 0.484478 0.112902 0.867487 
-50.8318 17.9057 -72.82 110 105 115 0.587875 0.198005 0.784345 
-50.8912 18.2094 -72.749 83 79 89 0.574477 0.238198 0.783095 
-51.0021 16.4217 -72.5635 54 50 62 0.541966 -0.471927 0.695384 
-53.7018 17.9732 -71.5383 67 63 73 0.53732 0.0931355 0.83822 
-50.4274 16.7168 -72.8063 62 56 69 0.498192 0.11055 0.859991 
-51.2271 18.0479 -72.3504 82 77 85 0.581735 0.323903 0.746104 
-53.0896 15.9247 -71.6675 94 87 99 0.526307 0.123923 0.841216 
-52.4656 15.8352 -71.9007 95 89 99 0.439925 0.186858 0.878379 
-52.2968 15.8325 -71.4546 70 64 74 0.583104 -0.459466 0.669985 
-53.5069 18.0827 -71.6636 60 57 67 0.607985 -0.067236 0.791096 
-51.4192 17.8739 -72.5023 68 63 71 0.567899 0.359615 0.740384 
-50.7792 17.8764 -72.8099 103 98 109 0.584399 0.224769 0.779716 
-52.991 15.3996 -71.6289 85 79 92 0.538548 0.105399 0.835977 
-53.0808 15.4298 -71.5643 90 84 97 0.539683 0.108515 0.834845 
-52.9435 15.6615 -71.7183 82 75 87 0.531911 0.130413 0.836698 
-52.0904 18.1887 -72.2803 88 84 89 0.661236 0.129859 0.738853 
-52.7671 15.5059 -71.7874 55 48 61 0.511862 0.092677 0.854054 
-51.7655 15.7687 -72.2482 93 86 97 0.499488 0.0891437 0.861722 
-50.1466 16.8207 -72.9638 81 76 88 0.451155 0.0997881 0.886849 
-51.106 16.0217 -72.5273 41 35 46 0.456645 -0.0676 0.887077 
-50.9251 15.9087 -72.6381 81 74 87 0.463753 -0.0910694 0.881271 
-51.0123 16.2308 -72.6009 86 81 92 0.501327 -0.0314183 0.864687 
-50.6947 18.9707 -72.9539 101 98 104 0.638876 -0.0735501 0.765786 
-51.6283 18.3368 -72.5045 63 59 67 0.66895 0.169142 0.723807 
-52.5305 17.7398 -72.0126 83 84 85 0.610068 0.13872 0.780111 
-52.2718 16.9765 -70.9249 114 142 111 0.560283 0.196939 0.804548 
-49.9915 16.7688 -72.9687 83 75 88 0.477837 0.140882 0.867078 
-51.2284 16.1908 -72.5128 92 87 97 0.480598 0.0120484 0.876858 
-52.6609 18.1235 -71.9687 79 75 82 0.492992 0.0772494 0.866598 
-52.379 15.8022 -71.9374 87 82 91 0.477853 0.109835 0.871546 
-53.0553 17.1961 -71.083 69 71 73 0.451585 0.0474639 0.890965 
-51.5472 16.5078 -71.5494 139 153 139 0.47489 -0.422669 0.771901 
-50.0868 16.1718 -72.9765 98 91 104 0.460339 0.211426 0.862199 
-51.341 17.3736 -71.5123 128 159 122 0.652025 0.126824 0.747516 
-50.049 16.021 -73.0014 88 81 94 0.44915 0.240454 0.860492 
-52.2784 15.985 -72.0099 102 97 105 0.414412 0.28596 0.863996 
-53.3196 16.634 -71.5482 37 36 44 0.626303 -0.0886415 0.774524 
-50.2283 16.497 -73.0384 68 62 75 0.477673 0.18601 0.858621 
-51.8779 16.4795 -71.7805 33 38 37 0.474489 -0.33484 0.81409 
-51.1933 17.0623 -71.4914 79 114 73 0.63135 0.0704696 0.772289 
-51.3937 18.0678 -72.6203 69 65 73 0.618853 0.21559 0.755342 
-52.9344 17.1218 -71.0652 69 73 74 0.472196 -0.263015 0.84134 
-51.2379 18.1455 -72.7542 60 55 64 0.619264 0.21263 0.755844 
-50.4679 16.1776 -72.8074 80 73 86 0.493532 0.116548 0.861883 
-50.4116 16.3811 -72.9175 100 93 106 0.49459 0.119682 0.860847 
-50.6467 16.121 -72.7569 85 79 92 0.504806 0.120054 0.854844 
-52.2392 17.294 -70.9783 114 146 111 0.491349 0.435477 0.754278 
-51.6338 17.4703 -71.8433 116 137 112 0.41332 0.285206 0.864769 
-52.7457 18.2831 -71.9955 42 40 46 0.605456 0.0124125 0.795782 
-51.0979 18.1668 -72.6164 69 65 73 0.609608 0.161856 0.776003 
-52.4149 16.4991 -71.1501 59 62 62 0.423871 -0.526128 0.737239 
-51.7964 18.0125 -72.4312 57 55 60 0.395266 -0.266016 0.879204 
-51.3321 18.7782 -72.7512 62 59 64 0.697174 -0.297869 0.652091 
-51.3277 19.0845 -72.6305 131 129 127 0.685311 -0.34838 0.639515 
-51.4747 18.6951 -72.6317 73 69 75 0.672258 -0.142874 0.7264 
-50.9496 16.9997 -72.5671 31 30 39 0.543366 0.304349 0.782384 
-52.3774 18.9228 -72.13 62 60 63 0.525095 0.130177 0.841029 
-51.3743 18.4939 -72.7263 84 80 88 0.66576 -0.101407 0.739243 
-51.2669 18.566 -72.7249 74 70 78 0.614099 0.175239 0.769528 
-50.2613 16.4932 -72.8036 75 68 80 0.496145 0.0890517 0.863661 
-51.7265 18.1304 -72.4362 92 87 94 0.656873 0.152515 0.738415 
-51.2903 17.5665 -72.5299 102 101 108 0.503015 0.304332 0.808924 
-51.8198 16.1855 -72.2916 87 83 89 0.478106 0.100728 0.872507 
-51.4946 16.2905 -72.4254 33 30 39 0.490388 0.10092 0.865641 
-51.5968 16.0817 -72.3607 64 60 69 0.405362 0.0832561 0.910357 
-51.6204 16.2447 -72.3237 86 83 90 0.479869 0.0508744 0.875864 
-51.6826 16.4007 -72.3235 76 75 80 0.50276 0.0982732 0.858822 
-52.8534 17.6157 -71.5853 82 92 83 0.418195 0.386393 0.822079 
-50.5682 16.7646 -72.7918 65 60 71 0.418926 0.113488 0.9009 
-52.8652 16.1143 -71.7581 90 85 95 0.524156 0.0428729 0.850543 
-50.9993 16.677 -72.5666 47 45 54 0.566758 0.115695 0.815721 
-51.5537 15.9222 -72.3791 54 48 59 0.358869 0.0675363 0.930941 
-51.3143 16.1668 -72.4424 94 89 99 0.381342 0.0682402 0.921912 
-52.2197 16.1346 -72.001 66 62 69 0.483012 0.0770019 0.872221 
-51.4133 15.9702 -72.3967 91 86 97 0.393726 0.0771215 0.915987 
-52.366 18.9489 -72.0256 68 65 67 0.676037 -0.00138249 0.736866 
-51.4919 16.2713 -72.352 44 42 49 0.370367 0.0431877 0.927881 
-51.1563 16.8297 -72.4901 34 33 41 0.59589 0.17437 0.783907 
-51.3984 17.266 -71.4003 70 101 66 0.53792 0.406319 0.738612 
-51.0656 18.8641 -72.8676 110 107 112 0.714953 -0.244631 0.654979 
-53.4423 17.466 -71.5801 52 53 59 0.589199 0.154421 0.793095 
-50.9257 16.8237 -72.623 67 64 74 0.552257 0.140655 0.821723 
-50.6856 18.8058 -73.0065 111 107 116 0.625355 -0.110357 0.772498 
-51.3852 18.6269 -72.7141 114 111 118 0.591876 0.0792048 0.802128 
-53.736 18.0457 -71.5108 55 51 62 0.568946 0.0816875 0.818308 
-50.6502 18.3111 -73.0112 67 60 70 0.551699 0.265633 0.790612 
-52.3631 17.7954 -71.6869 69 74 71 0.558424 -0.173096 0.811295 
-52.8207 17.7142 -71.7975 101 103 103 0.61911 0.107352 0.777932 
-51.6924 18.2086 -72.471 68 63 71 0.601587 0.0378621 0.797909 
-51.2903 18.3444 -72.6916 98 94 102 0.65524 -0.041041 0.754305 
-50.4669 16.3578 -72.7253 89 82 95 0.516185 0.0986614 0.850776 
-51.173 19.0358 -72.7403 64 63 61 0.560696 -0.0908069 0.823027 
-50.6499 18.8008 -72.9811 121 116 124 0.586932 -0.125666 0.799824 
-50.3652 17.9724 -73.0187 97 92 104 0.541897 0.105489 0.833798 
-53.2995 16.4768 -71.4298 60 57 68 0.468457 0.381527 0.79686 
-52.2751 17.8978 -72.1745 82 79 84 0.447457 0.0362803 0.893569 
-53.3213 17.9731 -71.7294 82 81 88 0.612799 -0.119607 0.781135 
-53.6786 18.0672 -71.5392 61 58 68 0.576361 0.0234967 0.816857 
-53.3682 18.154 -71.7175 44 41 50 0.611864 -0.178524 0.770552 
-53.4015 18.3313 -71.6879 102 99 108 0.627839 -0.152067 0.763344 
-51.3087 16.4337 -72.0477 75 76 78 0.469522 -0.563093 0.680055 
-50.4475 16.544 -72.89 26 20 32 0.506957 0.119879 0.853595 
-52.4775 16.6292 -71.8589 50 53 52 0.512221 -0.388637 0.765892 
-50.5279 16.6034 -72.826 96 91 103 0.489078 0.113305 0.86485 
-51.3948 17.7111 -72.5187 76 72 79 0.592698 0.2182 0.775305 
-50.7734 16.4483 -72.7408 105 100 112 0.529116 0.0316095 0.84796 
-51.094 16.2386 -72.6087 69 64 75 0.52674 0.0572848 0.848094 
-50.7602 16.3456 -72.7356 85 79 91 0.501419 0.113502 0.857728 
-51.1609 16.1256 -72.5171 58 53 64 0.510738 0.0806428 0.855946 
-50.937 16.4596 -72.6201 45 39 50 0.489288 0.104134 0.865883 
-51.476 15.5236 -72.3959 75 68 80 0.497359 0.0892696 0.86294 
-50.2206 17.4338 -73.0581 71 65 77 0.334408 0.0559515 0.940766 
-50.0484 16.5669 -73.0654 100 94 107 0.526238 0.0989385 0.844562 
-50.003 16.3209 -73.0197 55 48 61 0.542639 0.0811822 0.836034 
-53.1141 16.5126 -71.7306 29 26 34 0.537456 0.111547 0.835882 
-51.01 16.4473 -72.6262 54 49 59 0.481921 -0.0680522 0.873568 
-50.872 16.4953 -72.7152 75 69 81 0.453258 -0.0702619 0.888606 
-50.5052 17.9269 -72.9541 72 67 78 0.511431 0.123149 0.850454 
-50.2913 17.6573 -73.0263 57 51 64 0.584378 0.122175 0.802232 
-52.7546 18.6892 -71.9902 84 80 87 0.58773 0.0349009 0.808304 
-52.9513 18.7946 -71.9216 52 49 56 0.590937 0.0321313 0.806077 
-50.7033 17.8761 -72.8699 64 59 70 0.586929 0.167478 0.792127 
-51.2149 18.5396 -72.7673 75 70 78 0.589081 0.122541 0.798729 
-52.7823 18.6702 -72.0337 84 80 87 0.496933 0.116671 0.85991 
-52.6185 18.7631 -72.1384 85 81 86 0.496764 0.119511 0.859618 
-52.7049 18.555 -72.0554 75 72 77 0.517966 0.0486027 0.854019 
-51.0887 15.9125 -72.5439 51 45 57 0.461929 0.0762945 0.883629 
-50.9753 16.1099 -72.5708 74 68 80 0.477314 0.0825852 0.874843 
-53.0966 18.3603 -71.5235 82 79 89 0.576763 0.11594 0.808642 
-51.4499 17.868 -72.512 66 61 69 0.565688 0.36028 0.741752 
-52.2376 18.0754 -72.1321 97 93 98 0.475514 0.0479625 0.8784 
-50.9586 17.1878 -72.6569 45 44 52 0.523873 0.281601 0.803901 
-52.8588 18.0716 -71.9385 67 65 72 0.639907 -0.020912 0.768168 
-51.0479 18.7299 -72.8372 79 75 82 0.495868 0.113547 0.860942 
-50.4154 17.2839 -72.8841 38 32 44 0.504056 0.0894523 0.859026 
-50.5315 18.501 -72.9448 71 65 75 0.498449 0.0923054 0.861991 
-52.5699 18.1643 -72.1085 104 100 107 0.514095 0.0897175 0.853028 
-50.6569 16.1726 -72.7661 77 71 84 0.528644 0.111522 0.841486 
-51.2372 18.0922 -72.47 82 77 85 0.581604 0.148017 0.799892 
-53.6032 17.5299 -71.5446 61 60 67 0.524002 0.126986 0.842198 
-52.1316 16.831 -70.9883 131 154 130 0.635549 0.142736 0.758752 
-52.1497 17.028 -70.9958 108 138 106 0.611504 0.161558 0.774572 
-51.2379 17.3902 -71.7499 75 96 73 0.567064 0.374229 0.733751 
-51.9688 16.9155 -71.1058 84 110 82 0.607094 0.168049 0.776657 
-51.2816 17.4849 -72.3631 75 76 79 0.711182 0.199875 0.673996 
-51.9376 16.7201 -71.0875 67 83 68 0.600703 0.164928 0.782275 
-53.2998 16.6911 -71.5046 103 101 111 0.613609 0.13586 0.777835 
-53.0334 17.9767 -71.851 62 61 67 0.57704 -0.134989 0.805483 
-51.6228 16.3019 -71.7186 92 92 91 0.449499 -0.317939 0.834785 
-50.5761 17.8228 -72.9689 74 69 81 0.596648 0.256606 0.760372 
-51.6998 16.3624 -71.8289 99 103 97 0.563205 -0.385869 0.730688 
-52.5056 18.8989 -72.0929 93 89 92 0.564371 0.12167 0.816506 
-51.3385 16.5455 -71.7717 65 75 67 0.483977 0.082767 0.871158 
-53.2226 18.1136 -71.7154 79 76 84 0.517034 0.194453 0.833585 
-53.2277 16.6979 -71.8127 62 62 68 0.500885 -0.425341 0.75379 
-53.174 15.731 -71.5701 79 73 86 0.622958 0.172113 0.763086 
-52.1019 16.7018 -71.0449 102 116 103 0.576763 0.11594 0.808642 
-50.5986 16.5027 -72.7946 69 63 75 0.506957 0.119879 0.853595 
-51.6653 17.3577 -71.4806 108 141 104 0.566711 0.147256 0.81065 
-51.0953 16.8832 -72.5349 34 33 42 0.574597 0.150738 0.804435 
-52.4193 15.6851 -71.9143 103 97 107 0.467431 0.079533 0.880445 
-52.5378 15.9806 -71.9201 84 79 88 0.482892 0.0858788 0.871459 
-52.1969 17.1659 -70.8757 117 145 115 0.517923 -0.359803 0.776078 
-51.6861 16.4589 -72.2349 61 62 65 0.376693 0.0433131 0.925325 
-51.9866 17.3139 -71.2164 104 136 100 0.606777 0.126103 0.784805 
-51.4975 16.4584 -72.425 50 48 55 0.437102 -0.0145261 0.899295 
-50.5311 16.5145 -72.7273 68 62 74 0.492473 0.113427 0.862905 
-51.2853 15.9456 -72.5053 58 52 63 0.518078 0.0600468 0.853223 
-51.3673 15.7498 -72.4374 76 69 81 0.502954 0.0864232 0.859981 
-52.9406 18.6735 -71.9316 78 74 82 0.617253 -0.0351511 0.785979 
-50.5387 18.0044 -72.9296 108 103 114 0.585136 0.20426 0.784789 
-51.1732 16.9982 -71.5784 71 103 68 0.536561 0.376734 0.755099 
-50.29 17.3788 -73.0203 68 62 74 0.560172 0.144129 0.815741 
-50.4136 16.2944 -72.8287 104 97 110 0.480458 0.131296 0.867134 
-50.1549 16.3853 -72.9855 69 63 75 0.480458 0.131296 0.867134 
-50.2613 16.1888 -72.9508 68 62 75 0.462994 0.1592 0.871947 
-51.754 18.9102 -72.4444 74 70 72 0.336732 0.0320087 0.941056 
-52.4504 18.2479 -72.1192 98 95 101 0.539658 0.336682 0.771631 
-52.2648 16.2861 -71.9853 83 79 85 0.510714 -0.0258762 0.859361 
-51.5526 16.3963 -71.6508 85 88 83 0.415934 -0.377978 0.827123 
-50.8583 16.9789 -72.6572 53 51 61 0.490129 0.289693 0.822102 
-53.223 16.3296 -71.5726 75 71 82 0.551924 0.105749 0.827162 
-50.8164 16.1571 -72.6118 85 79 91 0.546557 -0.105832 0.830708 
-52.4139 16.4132 -71.8933 98 98 96 0.510714 -0.0258762 0.859361 
-51.5638 17.2222 -71.3788 56 90 52 0.647044 0.17591 0.741883 
-51.3124 17.2856 -72.2277 64 74 69 0.592554 0.154514 0.790572 
-51.6401 17.3797 -71.3914 94 123 90 0.661805 0.162789 0.731789 
-51.1375 16.9037 -71.4986 119 152 114 0.600668 0.246227 0.760638 
-52.8762 15.8282 -71.7698 58 52 64 0.531175 0.0260784 0.846861 
-52.5108 17.9685 -71.9778 74 73 76 0.631399 0.12628 0.765107 
-50.0732 16.0854 -73.0261 80 74 87 0.483977 0.082767 0.871158 
-50.7509 16.3157 -72.7219 95 89 101 0.418156 0.0897035 0.903935 
-52.7689 15.8103 -71.7825 56 50 61 0.529549 0.017697 0.848095 
-51.1234 17.3565 -72.2813 37 38 42 0.511421 0.344688 0.787171 
-52.1098 16.1457 -72.0942 92 88 92 0.525391 0.0429739 0.849775 
-52.4801 15.8974 -71.9101 79 74 83 0.521226 0.0486478 0.852031 
-50.7956 16.6773 -72.6465 39 36 46 0.637942 -0.0468866 0.768656 
-52.8453 16.0033 -71.7942 79 73 84 0.535962 0.0373927 0.843413 
-52.5313 16.0978 -71.8876 87 83 91 0.534721 0.0122455 0.84494 
-52.6593 15.8989 -71.8762 57 52 62 0.529116 0.0316095 0.84796 
-52.7008 16.2032 -71.7857 68 65 73 0.529116 0.0316095 0.84796 
-52.756 16.0755 -71.8181 57 53 62 0.529116 0.0316095 0.84796 
-52.0797 17.0736 -70.9347 94 125 92 0.578717 0.115743 0.807273 
-52.0505 17.2939 -71.1085 85 116 82 0.50846 0.329941 0.795366 
-51.2142 17.1139 -71.5924 53 85 49 0.528594 0.372455 0.762801 
-53.6847 17.8838 -71.5226 86 83 93 0.519315 0.126556 0.84516 
-50.2102 17.1808 -72.9369 87 82 94 0.432594 0.0641386 0.899305 
-51.6418 16.408 -72.2847 68 67 72 0.480958 0.053746 0.875095 
-50.5065 17.1284 -72.8471 84 79 91 0.560918 0.210536 0.800653 
-50.3299 17.017 -72.9574 71 65 78 0.545331 0.192917 0.815719 
-50.5648 16.4042 -72.7701 82 76 88 0.515404 -0.0343603 0.856258 
-50.7345 17.0824 -72.7237 48 44 55 0.539651 0.264351 0.799309 
-52.8027 17.6681 -71.1284 66 68 70 0.367519 0.0219222 0.929758 
-53.1245 15.5849 -71.5055 95 87 101 0.470136 0.235829 0.850504 
-52.7101 17.6614 -71.9193 58 64 59 0.474429 -0.0367037 0.879528 
-51.3457 18.9367 -72.6287 112 110 110 0.608473 0.158535 0.777578 
-52.1732 16.7287 -71.0849 84 106 87 0.365386 -0.696363 0.617715 
-51.6841 17.6145 -72.3523 88 90 90 0.565893 0.294902 0.769934 
-53.1536 17.2281 -71.5495 56 60 61 0.53038 0.299229 0.793195 
-51.4365 18.5188 -72.5969 102 97 104 0.52181 0.120641 0.844488 
-51.5123 17.5108 -72.3927 62 64 65 0.549065 0.366586 0.751094 
-52.8134 17.6565 -71.5875 64 69 66 0.169738 0.857545 0.485598 
-51.6431 16.1599 -72.3237 94 91 99 0.381857 0.08833 0.919991 
-51.3596 16.2468 -72.4547 61 57 67 0.359246 0.0376106 0.932485 
-51.6819 16.2033 -71.8245 97 94 97 0.399376 -0.544006 0.737941 
-51.2248 16.2908 -72.5285 47 42 52 0.391645 -0.0195172 0.91991 
-51.2287 16.7355 -71.5087 126 154 126 0.7227 -0.165841 0.67097 
-51.2572 15.9436 -72.4706 56 50 62 0.370408 0.0405747 0.927983 
-50.4716 18.3643 -73.0593 83 76 88 0.567828 0.150527 0.809267 
-51.1517 17.0712 -72.4658 38 40 46 0.542893 0.219925 0.810494 
-50.8986 17.1638 -72.7177 41 38 47 0.519402 0.277747 0.808133 
-52.3685 17.7373 -72.1417 131 131 132 0.428024 0.0928078 0.898989 
-52.4927 15.3303 -71.9085 82 75 88 0.405927 0.149552 0.901586 
-50.9139 16.3881 -72.6676 62 57 68 0.481089 0.112778 0.869387 
-50.8214 19.012 -72.9607 65 62 66 0.461436 -0.412864 0.785251 
-52.9348 15.663 -71.71 76 69 82 0.519504 0.123691 0.845468 
-51.0329 16.6098 -72.5884 50 46 56 0.489017 -0.0120579 0.872191 
-52.6929 18.6856 -72.0442 71 67 72 0.650101 -0.0497889 0.758215 
-51.6981 15.8653 -72.3497 68 63 73 0.53296 0.117629 0.837924 
-51.4445 15.6075 -72.394 65 58 71 0.487474 0.0453145 0.871961 
-51.6726 15.7098 -72.3301 86 80 91 0.464657 -0.0449669 0.884348 
-51.0818 15.7314 -72.4727 61 53 65 0.566927 0.23143 0.790591 
-51.5924 17.9937 -72.4506 106 102 109 0.584971 0.148113 0.797416 
-51.8968 17.3424 -71.1899 97 127 94 0.445155 0.454939 0.771276 
-52.3304 16.4992 -71.8349 55 56 60 0.483563 -0.331359 0.810166 
-52.6311 16.778 -71.1796 140 157 140 0.477215 0.128315 0.869368 
-51.325 16.6819 -72.4224 38 38 45 0.453001 -0.014613 0.89139 
-51.4518 16.5077 -72.2781 36 36 41 0.402728 0.0521807 0.913831 
-51.0456 17.3171 -72.508 46 45 53 0.343952 0.689533 0.63737 
-50.1005 16.6646 -72.9691 82 76 89 0.513578 0.136076 0.847184 
-51.7737 18.9463 -72.5158 97 93 95 0.634154 0.355585 0.686591 
-50.8724 18.7823 -72.8912 81 76 84 0.570095 0.147361 0.808255 
-50.6707 17.0763 -72.7845 81 77 88 0.413904 0.0866311 0.906189 
-50.7358 17.1155 -72.7294 43 39 50 0.541523 -0.045939 0.83943 
-51.1322 17.0739 -72.1214 45 54 49 0.48471 0.103765 0.868498 
-50.7597 18.9193 -72.934 115 110 116 0.590887 0.0493581 0.805243 
-51.111 16.8671 -71.5842 96 124 93 0.649195 0.0410167 0.759515 
-52.575 16.3493 -71.8144 56 54 60 0.563084 0.109125 0.819163 
-52.5097 17.2323 -70.9323 96 116 94 0.767384 0.0498301 0.639249 
-50.5334 16.1776 -72.7467 66 59 71 0.475632 0.106485 0.873175 
-50.6636 18.7052 -72.9433 65 59 68 0.57446 0.0377383 0.817662 
-52.771 18.1472 -71.9784 49 46 53 0.631566 -0.00690991 0.775292 
-52.0646 16.5963 -71.6606 23 31 28 0.461208 -0.168377 0.87117 
-51.0447 18.5853 -72.794 87 84 92 0.51593 0.133002 0.846243 
-51.599 17.6282 -72.2713 91 92 92 0.622565 0.165109 0.764952 
-51.6328 16.3818 -71.7316 72 75 73 0.508277 -0.426031 0.748433 
-51.112 18.525 -72.7555 95 91 99 0.497466 0.13859 0.856341 
-50.2625 17.6732 -73.0317 59 54 66 0.590934 -0.201071 0.78126 
-50.377 17.9088 -73.0287 87 83 94 0.492897 0.336574 0.802353 
-50.5836 18.0174 -72.9459 108 103 114 0.59302 0.264091 0.760647 
-50.9417 19.1443 -72.7776 125 125 120 0.462868 -0.398356 0.791875 
-50.8562 18.7191 -72.937 102 97 106 0.500163 0.119635 0.857627 
-53.1665 17.5705 -71.4581 74 77 77 0.435516 0.344325 0.831725 
-51.6293 16.4579 -71.4239 63 74 65 0.550476 -0.169493 0.817465 
-50.4628 16.868 -72.8531 59 54 66 0.417871 0.113202 0.901426 
-50.7179 18.5258 -72.9368 51 46 56 0.491722 0.0859456 0.866501 
-51.5562 18.5151 -72.647 98 93 100 0.664624 0.126951 0.736314 
-50.8467 18.8254 -72.9572 87 83 90 0.500163 0.119635 0.857627 
-50.8271 18.4811 -72.832 27 23 32 0.499401 0.0981728 0.860791 
-52.3293 16.9947 -70.8963 121 142 120 0.591004 0.122327 0.797339 
-52.2397 17.2159 -70.9798 123 153 121 0.558931 0.227598 0.797367 
-52.6995 16.3348 -71.9245 51 48 53 0.477667 -0.320021 0.818182 
-52.6668 16.5586 -71.7645 52 53 57 0.49454 -0.432106 0.754132 
-51.5008 16.6273 -72.3667 39 42 44 0.535433 0.0517259 0.842992 
-53.1693 16.4395 -71.6014 68 66 78 0.316707 -0.817767 0.480576 
-50.0404 16.2415 -73.0267 39 31 44 0.511371 0.0512757 0.857829 
-52.8649 15.6573 -71.7196 58 52 64 0.529549 0.017697 0.848095 
-50.8108 18.1955 -72.8513 75 70 80 0.557639 0.150191 0.816383 
-50.6889 17.9545 -72.8798 109 104 114 0.487228 0.281751 0.826575 
-53.2914 17.5233 -71.373 72 73 76 0.435516 0.344325 0.831725 
-50.1902 17.4387 -73.0275 70 65 78 0.465671 0.326759 0.822423 
-52.4487 16.5433 -72.0201 75 73 77 0.435803 0.11424 0.892762 
-50.8571 18.5609 -72.8288 55 51 60 0.558742 0.153468 0.815018 
-52.2821 16.4562 -72.0462 101 98 103 0.480797 -0.374668 0.792753 
-50.7646 18.5954 -72.9309 65 60 69 0.568931 0.112616 0.814638 
-51.6645 16.4496 -71.2262 90 91 90 0.587694 0.122252 0.799794 
