ply
format ascii 1.0
comment Created by CloudCompare v2.11 alpha (Anoia)
comment Created 15/10/2019 14:54
obj_info Generated by CloudCompare!
element vertex 750
property float x
property float y
property float z
property uchar red
property uchar green
property uchar blue
property float nx
property float ny
property float nz
end_header
-48.5098 11.2109 -73.0575 133 125 136 0.550412 0.0843488 0.830621 
-47.0495 2.86932 -72.7124 65 66 65 0.599543 0.218438 0.769956 
-48.3553 8.59981 -73.0645 96 89 100 0.652929 0.279371 0.704014 
-50.4226 6.68757 -71.8803 82 76 89 0.616012 -0.094659 0.782029 
-50.8676 8.28541 -71.9206 82 79 81 0.528118 0.412952 0.741998 
-49.214 4.99946 -72.3603 77 73 82 0.483092 -0.0682177 0.872908 
-50.1994 9.30112 -71.5501 129 169 121 0.198217 0.827669 0.525047 
-47.9977 7.30627 -73.1276 99 92 100 0.530344 -0.212443 0.820734 
-47.0287 4.974 -73.1651 89 81 92 0.598449 0.15828 0.78537 
-49.6483 9.62952 -71.7476 61 93 53 0.250113 0.750339 0.611911 
-49.9959 7.04196 -72.0686 88 81 95 0.606072 -0.0379674 0.794503 
-50.1829 7.48745 -72.0297 74 67 79 0.493353 0.304208 0.814899 
-49.521 10.0531 -72.5624 107 100 105 -0.0576566 0.913119 0.403596 
-49.3223 4.90475 -72.3055 61 57 67 0.452839 -0.251577 0.855363 
-51.233 9.16107 -71.7916 91 97 92 0.392028 0.163939 0.905228 
-49.935 7.7358 -72.1883 63 56 69 0.424095 0.0582622 0.903742 
-51.1979 7.53075 -71.4802 84 76 89 0.503288 0.135669 0.853402 
-50.6727 5.41348 -71.7088 68 63 76 0.434687 0.0930481 0.895762 
-49.5829 7.61695 -72.2334 102 95 108 0.517272 -0.0836138 0.851727 
-51.3436 9.88431 -71.7714 53 50 59 0.471243 0.156108 0.868079 
-49.2562 6.73724 -72.5745 89 82 93 0.450272 0.345998 0.823128 
-48.5995 10.7479 -73.1135 63 56 66 0.571215 0.150634 0.80686 
-48.7754 10.519 -73.1101 93 86 96 0.591413 0.17092 0.788046 
-48.0267 3.98014 -72.7733 38 35 41 0.384942 0.659193 0.645976 
-48.0674 3.9336 -72.1531 116 142 111 0.160642 0.884254 0.438509 
-50.6619 8.11756 -71.6149 73 67 78 0.645577 0.175512 0.743253 
-49.4094 8.18121 -72.0966 89 83 93 0.577865 -0.131534 0.805463 
-51.2171 7.47109 -71.6951 39 32 45 0.607798 0.21918 0.763245 
-48.4308 9.46132 -73.1052 92 86 95 0.419495 0.0638067 0.905512 
-48.1009 9.26048 -73.1772 97 90 102 0.576407 0.228388 0.784598 
-50.9973 9.21538 -71.8894 60 65 61 0.477487 -0.270422 0.835989 
-48.3748 3.75892 -71.4024 122 159 119 0.0544457 0.922921 0.38112 
-47.9054 3.80186 -72.786 36 35 39 0.395893 0.647675 0.650988 
-50.1067 9.46813 -71.6057 111 152 105 0.640091 0.107418 0.760752 
-48.984 7.34618 -72.6613 100 93 104 0.50951 -0.0894126 0.855807 
-49.2236 2.2477 -72.0599 89 87 95 0.653637 0.139743 0.743794 
-50.5991 6.21662 -71.8298 71 64 78 0.496933 0.116671 0.85991 
-47.2553 3.70033 -73.0656 94 92 99 0.525924 0.364101 0.768658 
-47.858 2.23122 -71.8935 84 90 80 0.577091 0.371104 0.727494 
-50.7899 8.6922 -71.6796 89 96 90 0.295459 0.405681 0.864943 
-50.599 7.59582 -71.6743 71 63 76 0.509032 -0.315568 0.800814 
-49.8913 3.5007 -71.9159 35 33 41 0.568741 0.115503 0.814367 
-49.6824 7.14901 -72.2276 101 93 107 0.584397 -0.270818 0.764943 
-47.7866 3.64903 -71.4915 89 126 85 0.618652 0.0979898 0.779531 
-48.7151 2.42988 -72.3416 46 50 47 0.318075 0.189163 0.929002 
-47.7234 3.84736 -71.8661 21 48 17 0.202989 0.807376 0.554022 
-47.5907 3.76859 -72.3282 27 36 31 0.119793 0.894921 0.429844 
-50.687 8.16539 -71.8673 37 32 43 0.442446 0.0643807 0.894481 
-50.2987 10.2233 -72.2447 102 97 104 0.352867 0.564262 0.746387 
-47.8704 3.96501 -71.9291 130 157 124 -0.0160651 0.955254 0.29535 
-47.6767 3.75973 -72.3059 23 35 25 0.343241 0.730404 0.590505 
-47.6406 3.80859 -72.2464 23 35 25 0.194996 0.826844 0.527547 
-47.3697 6.1569 -73.2973 110 106 112 0.521292 0.256756 0.813838 
-49.1597 11.1874 -72.995 68 63 73 0.422174 0.188444 0.886712 
-49.3573 9.26405 -71.2922 47 84 43 0.513538 -0.43758 0.738107 
-48.542 5.01515 -72.6499 108 103 109 0.556773 0.144019 0.818085 
-49.4601 5.28077 -72.242 69 63 73 0.511703 -0.0775307 0.855657 
-47.3254 4.0648 -73.0928 104 101 110 0.484885 -0.0174612 0.874404 
-48.4336 3.27591 -71.3608 107 152 103 0.422691 0.0665975 0.903824 
-49.1272 4.84911 -72.3323 65 58 69 0.503288 0.135669 0.853402 
-49.2671 2.40949 -72.0399 89 89 94 0.7229 0.149409 0.674606 
-49.1466 9.64313 -72.6133 70 66 71 0.673279 0.427241 0.603457 
-48.7428 8.28493 -72.7129 86 79 89 0.42043 0.0895998 0.90289 
-50.266 7.31778 -71.99 89 81 94 0.602578 0.201887 0.772102 
-49.5182 9.63739 -71.9414 51 68 45 0.369708 0.612894 0.698338 
-50.3309 5.96002 -71.9458 79 74 87 0.436744 0.0962791 0.894419 
-48.5611 9.80541 -73.0577 84 79 90 0.64284 0.0798109 0.761831 
-48.1071 3.94723 -71.5568 88 122 85 -0.0511013 0.963446 0.262985 
-51.3466 10.5168 -71.9085 81 74 87 0.392878 0.557262 0.731509 
-47.1584 4.80811 -73.2567 87 83 93 0.599006 0.122759 0.791279 
-48.1454 3.97986 -71.8281 107 136 102 0.0212594 0.95167 0.306385 
-46.8832 3.92433 -73.2336 76 73 81 0.458897 0.168604 0.872345 
-50.8532 8.91175 -71.9507 70 76 69 0.47534 -0.256899 0.84146 
-48.2578 3.96838 -71.7761 62 89 58 0.189692 0.880819 0.433792 
-50.0929 9.96508 -72.0114 108 118 103 0.163761 0.809792 0.563399 
-48.4057 10.4466 -73.1598 95 89 99 0.602936 0.037947 0.796887 
-47.4809 3.6979 -72.458 34 40 40 0.12335 0.891809 0.435271 
-47.4578 3.85789 -72.6918 44 45 51 0.563187 0.3193 0.762147 
-49.3509 10.8663 -72.7579 104 98 106 0.463338 -0.172097 0.86931 
-47.6807 3.83995 -71.6524 50 83 46 0.201759 0.829791 0.520326 
-48.27 4.01929 -72.0134 100 122 99 -0.0888085 0.986367 0.138541 
-48.0041 3.77179 -71.278 86 125 81 0.242154 0.782703 0.573357 
-48.1332 4.08987 -72.0946 99 119 98 0.0163367 0.94627 0.322963 
-50.3442 7.05585 -71.857 73 66 79 0.466285 0.079338 0.88107 
-49.4103 3.53651 -72.0912 104 112 105 0.498047 0.176918 0.84891 
-48.5529 2.34908 -72.3309 65 66 66 0.456637 -0.149313 0.877034 
-48.1697 3.9253 -71.5703 68 102 65 -0.0760098 0.970683 0.228029 
-49.0015 7.01572 -72.6459 55 48 58 0.419787 -0.0304578 0.907111 
-48.2554 3.95393 -71.7058 56 85 53 -0.0718774 0.964671 0.253463 
-49.0113 7.07623 -72.6891 85 78 88 0.599406 -0.142004 0.787748 
-49.8125 8.50777 -72.1915 75 71 77 0.500453 0.048253 0.864418 
-47.8013 3.70199 -71.3427 124 163 120 0.508607 0.436184 0.742336 
-49.55 6.80228 -72.4096 91 83 96 0.557471 -0.279525 0.781723 
-49.5135 9.37712 -71.2607 96 137 88 0.72436 -0.114061 0.679921 
-50.7546 6.43643 -71.7037 58 52 65 0.440159 0.0671895 0.895402 
-47.8055 3.84637 -71.7073 101 135 97 0.301248 0.769855 0.562648 
-50.3425 4.05444 -71.7116 87 82 95 0.508031 0.123027 0.852507 
-49.8686 10.5238 -72.5772 65 60 67 0.519119 0.433423 0.736655 
-47.7395 3.97984 -72.5778 37 37 41 0.309672 0.758938 0.572814 
-47.3893 2.44449 -72.5743 50 50 49 0.63205 -0.471103 0.615284 
-48.2572 9.56435 -73.1579 68 62 73 0.679502 0.172548 0.713095 
-50.156 6.66131 -72.0202 68 62 75 0.626989 -0.168513 0.760584 
-48.6262 9.04485 -73.0209 111 105 113 0.627609 0.142298 0.765414 
-48.9375 2.33612 -72.243 72 72 77 0.545477 0.268808 0.79385 
-47.6905 7.05526 -73.2765 68 62 69 0.553205 0.127663 0.823205 
-51.6021 9.13401 -71.7427 105 103 108 0.611797 -0.0613224 0.788634 
-48.9117 10.5083 -72.9008 73 68 77 0.430026 0.179299 0.884833 
-47.7142 3.48678 -71.2664 122 161 117 0.364947 0.603881 0.708619 
-49.2532 8.91402 -72.2378 37 37 41 0.762216 0.0440013 0.645826 
-50.5905 8.12908 -71.9314 78 72 83 0.60559 -0.122895 0.78623 
-47.3329 3.51023 -72.2186 41 52 42 0.133515 0.906497 0.400545 
-48.3825 4.07119 -72.1051 61 67 63 0.0596843 0.927096 0.370042 
-49.9785 8.27583 -71.489 84 82 84 0.681391 -0.298008 0.668504 
-49.4594 8.39215 -72.3315 92 90 95 0.501167 0.381147 0.77689 
-47.2554 3.2705 -72.4469 33 38 38 0.623434 0.136049 0.769948 
-49.456 8.82364 -71.9347 13 23 19 0.483491 -0.503429 0.716098 
-49.7156 10.0386 -72.5077 108 102 106 0.377174 0.617643 0.690113 
-50.1895 10.0612 -72.1799 74 79 72 0.264361 0.599958 0.755092 
-51.5164 9.41336 -71.7168 85 82 90 0.557592 0.0999321 0.824078 
-48.5175 6.15123 -72.8135 89 85 87 0.444511 0.120714 0.887602 
-47.4399 2.80939 -72.1588 31 42 35 0.633281 0.0826018 0.769501 
-49.0836 9.85209 -72.7411 66 63 70 0.543973 0.0932935 0.8339 
-50.1015 2.85187 -71.6543 76 68 82 0.602303 0.135332 0.786712 
-49.258 9.32291 -71.4212 85 120 80 0.510586 -0.322894 0.796895 
-51.4973 8.87794 -71.6555 41 38 45 0.600662 0.155058 0.784323 
-51.2217 9.01372 -71.7844 88 85 92 0.536791 0.0662183 0.841113 
-47.2507 3.42835 -73.0117 36 35 43 0.360694 0.589188 0.72302 
-46.9578 3.5463 -73.2003 84 81 89 0.358002 0.593401 0.720909 
-51.1808 8.93837 -71.8412 36 33 40 0.496135 -0.289543 0.818545 
-49.0552 10.6126 -72.9217 64 60 69 0.456958 -0.269251 0.847758 
-50.9761 8.0525 -71.8487 81 76 88 0.291413 -0.80808 0.511942 
-50.8705 9.51961 -71.7453 79 79 82 -0.0136935 0.949832 0.312461 
-48.0244 8.75897 -73.241 79 72 84 0.681731 0.179242 0.709306 
-49.8346 2.09139 -71.7 90 82 95 0.595093 0.158189 0.787934 
-48.5593 4.62139 -72.6059 107 104 111 0.576691 0.0848498 0.812544 
-49.7614 1.92421 -71.6921 79 71 84 0.586814 0.194583 0.785994 
-47.1672 4.78561 -73.2608 92 86 96 0.563643 0.0347928 0.825285 
-49.0644 4.98602 -72.4122 54 51 59 0.557653 0.0461216 0.828792 
-49.8353 1.76463 -71.7237 91 85 98 0.506957 0.119879 0.853595 
-47.2154 2.81985 -72.7679 50 55 50 0.582761 0.256038 0.771255 
-48.1204 3.85936 -71.5766 95 128 92 0.482026 0.375625 0.791554 
-47.0849 2.86224 -72.9071 105 107 106 0.570377 0.248466 0.782901 
-48.9372 10.8513 -73.0333 88 82 92 0.426542 0.17906 0.886566 
-50.2152 4.14471 -71.6824 69 64 77 0.537015 0.192115 0.821406 
-48.7711 8.23466 -72.7585 80 72 82 0.450887 -0.00394362 0.892572 
-47.3194 5.80441 -73.2606 122 118 125 0.562444 0.140982 0.814728 
-47.0213 3.09834 -73.0273 43 42 46 0.575281 0.249236 0.779059 
-47.9588 4.33268 -72.5927 59 59 65 0.465363 0.495172 0.73365 
-49.9007 6.97114 -72.0804 99 91 104 0.551388 0.347649 0.758361 
-49.0783 6.86609 -72.652 43 36 46 0.424424 -0.049853 0.90409 
-49.9594 7.35988 -72.0015 115 107 120 0.454996 0.114812 0.883061 
-50.2425 8.57326 -72.0673 50 51 55 0.221721 -0.970813 0.0914443 
-46.9594 3.57514 -73.0414 92 89 96 0.591827 0.238917 0.769844 
-50.0584 3.98247 -71.8916 67 63 74 0.662048 0.223813 0.715262 
-51.3987 9.93647 -71.5119 81 74 87 0.517403 0.108093 0.848887 
-47.769 3.9952 -72.1163 83 102 80 0.358955 0.696602 0.621206 
-49.6307 5.59243 -72.2029 65 59 71 0.541 0.127553 0.831293 
-46.8795 3.82316 -73.1399 84 79 88 0.599543 0.218438 0.769956 
-50.8552 10.4239 -71.8236 80 74 84 0.590325 0.15772 0.791606 
-46.7909 4.07743 -73.2269 85 80 89 0.503654 0.275996 0.818632 
-50.4974 4.72321 -71.779 83 78 91 0.541905 0.133641 0.829746 
-47.3315 6.20739 -73.1483 135 130 134 0.438317 0.534251 0.72281 
-49.0961 6.1648 -72.4618 74 69 76 0.545328 0.150077 0.824678 
-49.0292 2.34824 -72.2016 70 71 76 0.44673 0.24078 0.861659 
-49.1085 9.24249 -72.039 38 44 41 0.673357 -0.101667 0.732294 
-49.2689 10.1393 -72.7331 91 87 94 0.542522 0.165895 0.823498 
-51.0116 9.9632 -71.922 90 86 95 0.236417 0.746828 0.621574 
-47.767 4.74226 -73.0422 88 78 88 0.502806 0.177549 0.845968 
-50.6979 6.07271 -71.7077 49 43 57 0.499423 0.104464 0.860037 
-47.1798 2.73775 -72.7986 46 48 46 0.574829 0.252173 0.778447 
-50.7787 7.07201 -71.739 116 109 122 0.451155 0.0997881 0.886849 
-50.1439 6.60571 -71.9954 81 74 87 0.355742 0.0648006 0.932335 
-48.3505 7.73794 -72.9716 80 73 84 0.509313 0.1878 0.83984 
-47.7417 2.65063 -71.4676 99 125 97 0.79289 -0.463461 0.395638 
-47.6467 5.01875 -73.0877 76 67 77 0.503269 0.167756 0.84769 
-51.4675 9.54969 -71.5077 93 86 98 0.530326 0.0633015 0.845427 
-49.1128 2.79027 -72.2412 67 66 69 0.453006 -0.0789644 0.888003 
-48.7143 7.7849 -72.7406 57 50 62 0.451699 -0.171032 0.875623 
-49.6838 7.42031 -72.1902 103 96 110 0.553416 -0.134296 0.822007 
-50.254 10.8411 -72.3974 104 99 107 0.632986 0.113613 0.765781 
-49.9485 10.9698 -72.5602 112 106 114 0.637809 0.0982372 0.763904 
-51.4018 10.5373 -71.9193 77 71 83 0.527406 0.127103 0.840052 
-48.7591 7.45628 -72.5363 91 82 93 0.548624 0.0150495 0.835934 
-47.8443 4.07772 -72.651 40 37 43 0.309672 0.758938 0.572814 
-47.5152 3.6298 -71.9374 84 107 80 0.253019 0.811835 0.526218 
-49.7767 6.81236 -72.2751 62 55 69 0.568199 0.063763 0.820417 
-48.8545 10.3758 -72.9634 77 72 81 0.550916 0.140314 0.822681 
-51.6054 10.139 -71.7115 68 63 75 0.506498 0.170813 0.845153 
-48.4901 4.38432 -72.2259 87 81 91 0.311994 0.706433 0.635305 
-49.4455 4.49822 -72.1183 88 83 93 0.476671 0.162802 0.863875 
-47.8179 2.58915 -72.0813 49 63 52 0.265829 -0.958281 0.105035 
-50.0854 4.81791 -71.8781 53 48 60 0.564238 0.100083 0.819523 
-50.691 6.2625 -71.8207 98 90 104 0.465418 0.462129 0.754866 
-50.7724 6.04564 -71.7517 72 64 78 0.474046 0.451082 0.756178 
-50.6777 6.13135 -71.8431 92 83 98 0.485658 0.456025 0.745773 
-48.6718 5.06943 -72.6185 68 64 70 0.50821 0.120175 0.852808 
-49.1103 6.30966 -72.5246 86 81 88 0.547742 0.137305 0.825304 
-47.9684 2.21412 -72.6258 101 100 101 0.491618 0.141504 0.859237 
-49.3699 6.45122 -72.4369 76 71 82 0.553354 0.115343 0.824921 
-47.9349 3.90246 -72.8477 38 35 42 0.369641 0.747423 0.552018 
-49.3538 10.1366 -72.6929 83 79 86 0.446663 0.0700918 0.891952 
-48.6273 8.79099 -72.8872 91 85 95 0.551142 0.137416 0.823019 
-49.0169 9.37657 -72.7326 80 75 82 0.666212 0.439132 0.602763 
-49.9381 5.37446 -72.1165 82 75 88 0.433174 0.505644 0.746113 
-46.9825 4.85733 -73.3 78 73 84 0.44996 0.0701772 0.890287 
-49.0919 6.01403 -72.482 95 90 97 0.376693 0.0433131 0.925325 
-49.1607 10.7117 -72.9767 80 72 82 0.562212 0.134282 0.816019 
-48.802 5.47398 -72.5976 115 109 114 0.495186 0.135051 0.858226 
-47.2369 3.0507 -72.8734 56 59 60 0.445345 0.448607 0.774867 
-50.3289 8.57587 -71.6248 70 72 68 0.464468 -0.231478 0.854803 
-46.7452 2.75427 -73.1589 122 119 124 0.755045 -0.00414101 0.65566 
-47.6466 4.65408 -73.052 66 62 70 0.582683 -0.0207607 0.812434 
-50.959 10.147 -72.0442 78 73 82 0.149955 0.82104 0.550824 
-50.6131 9.90092 -71.8181 102 106 102 0.189342 0.703491 0.685018 
-47.8666 8.28085 -73.2723 91 84 96 0.605913 0.184674 0.773799 
-49.0536 5.89117 -72.4917 85 78 84 0.487656 0.253827 0.835322 
-50.8619 7.5138 -71.7681 76 69 83 0.341036 0.328911 0.880632 
-49.4688 10.1321 -72.5922 80 76 82 0.541973 0.416776 0.729769 
-49.7854 10.7302 -72.5804 92 87 95 0.457197 -0.0281558 0.88892 
-50.6798 5.88699 -71.9899 72 64 79 0.431274 0.0698254 0.899515 
-47.139 5.4692 -73.2445 93 84 95 0.573356 0.167041 0.802097 
-50.1615 10.1791 -72.1334 84 84 85 0.61813 0.161711 0.769262 
-48.734 5.06122 -72.5682 57 53 60 0.508031 0.123027 0.852507 
-50.2289 9.59403 -71.8181 102 136 95 0.148017 0.799892 0.581604 
-50.0505 10.6149 -72.3067 90 86 93 0.627025 0.0950038 0.773184 
-49.7156 3.46968 -71.9269 83 76 88 0.433486 0.449721 0.780923 
-49.9124 5.21014 -71.8051 83 77 90 0.487486 0.128743 0.863587 
-47.4138 3.54806 -72.189 79 93 81 0.639068 0.1754 0.748884 
-48.4613 8.66576 -73.0353 84 77 87 0.588241 0.214608 0.77969 
-49.5064 3.29725 -72.0201 54 49 58 0.446216 0.385441 0.807667 
-48.5048 5.75223 -72.7366 82 78 80 0.45374 0.139723 0.880112 
-47.8699 4.90601 -72.9503 82 78 85 0.545407 0.102716 0.831854 
-50.9379 7.30935 -71.7411 69 61 74 0.426209 0.104806 0.898533 
-49.7007 5.10219 -72.1468 60 55 66 0.576847 0.147566 0.803412 
-50.2664 7.06952 -71.9379 111 104 118 0.581604 0.148017 0.799892 
-47.1021 3.76222 -73.1397 70 68 77 0.559209 0.345251 0.753716 
-48.9843 6.01395 -72.508 108 104 110 0.545328 0.150077 0.824678 
-48.9219 10.9415 -73.0084 104 98 107 0.601092 0.0975137 0.793208 
-48.0385 4.06935 -72.1721 141 159 139 0.193195 0.804726 0.561331 
-51.3046 9.60345 -71.7856 84 82 87 0.378796 0.217918 0.899458 
-48.9064 5.95104 -72.5845 120 113 119 0.487656 0.253827 0.835322 
-49.4171 6.16479 -72.373 76 70 80 0.56545 0.069791 0.821825 
-48.9587 5.74468 -72.4435 106 99 105 0.503944 0.217716 0.835847 
-49.8347 3.70688 -72.0272 76 74 81 0.675026 0.213576 0.706205 
-49.4827 5.72268 -72.1911 98 91 103 0.441661 0.264385 0.857342 
-47.4572 5.04748 -73.1506 51 46 56 0.599962 0.128881 0.789579 
-46.9943 4.8101 -73.2132 70 65 74 0.540298 -0.0205176 0.841224 
-50.7444 8.56889 -71.9045 93 92 97 0.4991 -0.420553 0.75765 
-48.3954 5.54521 -72.7124 113 109 112 0.595408 0.0912669 0.798223 
-47.8091 3.52391 -71.2089 66 106 62 0.56091 0.112182 0.82024 
-49.1998 5.44017 -72.2861 67 60 70 0.501402 0.119932 0.856862 
-50.6846 5.03403 -71.783 63 57 71 0.304691 0.42533 0.852207 
-49.6163 6.69072 -72.1721 83 74 88 0.531087 -0.0040541 0.847307 
-51.5672 9.19794 -71.6245 104 99 108 0.561198 0.0785391 0.823947 
-48.4451 2.36663 -72.4013 79 82 80 0.433636 0.260182 0.862708 
-48.583 8.13162 -72.8335 87 80 91 0.43916 0.0643007 0.896105 
-49.5207 3.01173 -72.0371 66 66 73 0.485314 -0.0481189 0.873015 
-47.9829 3.11309 -71.6142 84 125 78 0.601368 0.129183 0.78846 
-48.8008 5.18837 -72.5311 91 83 91 0.504629 0.122904 0.854543 
-48.8719 4.96468 -72.4245 91 83 93 0.505696 0.126062 0.853452 
-47.8919 2.83267 -71.2105 32 65 31 0.484431 -0.438451 0.757026 
-50.3994 9.71202 -71.4115 109 135 107 0.148048 0.851643 0.502777 
-48.7324 10.8236 -73.1316 95 89 99 0.622887 0.129334 0.771547 
-47.0454 4.62258 -73.1848 80 76 86 0.499851 0.301172 0.812061 
-48.6153 7.33535 -72.8322 57 52 62 0.584161 -0.0760701 0.808065 
-47.7182 3.93916 -72.8973 60 60 66 0.559619 0.298145 0.773263 
-47.7502 6.25229 -73.1246 116 111 113 0.29303 0.211711 0.932369 
-51.6513 9.3625 -71.6194 70 66 76 0.610238 0.0265321 0.791774 
-48.0092 7.42989 -73.0612 76 69 78 0.462088 0.133876 0.876671 
-47.4877 2.9383 -72.383 27 34 30 0.928812 -0.332813 0.162925 
-49.4014 9.86537 -72.6223 66 65 69 0.588435 -0.040727 0.807518 
-47.5597 5.70855 -73.0454 129 124 127 0.62077 0.079586 0.779942 
-50.7077 7.01719 -71.7507 81 75 89 0.62637 -0.126464 0.7692 
-48.8455 9.64248 -72.7512 103 98 105 0.586107 0.161217 0.794032 
-48.4487 9.80407 -73.1026 75 69 78 0.390465 0.0770122 0.917391 
-47.6291 4.48609 -72.9491 83 74 86 0.452688 0.303347 0.838483 
-49.3109 8.44182 -72.3572 77 72 81 0.652709 -0.0919926 0.752003 
-50.4718 9.84573 -71.6156 102 111 100 0.0454556 0.866412 0.497257 
-49.2515 4.39402 -72.2174 100 96 104 0.489185 0.274876 0.827733 
-49.3249 10.7161 -72.7972 74 68 78 0.414382 0.171817 0.893737 
-50.509 10.5057 -72.2975 104 99 108 0.644981 0.1201 0.754702 
-48.9031 10.116 -72.9021 101 97 105 0.475148 0.0826954 0.876011 
-48.9884 9.54377 -72.7068 88 85 92 0.660184 0.110769 0.742891 
-49.4997 7.57576 -72.1831 107 99 111 0.511013 0.0315102 0.858995 
-47.2679 2.49032 -72.665 62 61 61 0.631737 -0.467519 0.618332 
-50.1909 6.67513 -71.9462 76 69 83 0.560917 0.100009 0.821809 
-48.6637 11.1321 -73.1188 107 101 112 0.551699 0.265633 0.790612 
-50.8314 8.81264 -71.984 89 93 89 0.447912 -0.120865 0.88587 
-49.7612 5.26176 -72.1427 74 68 80 0.527208 0.129977 0.839736 
-46.7208 2.779 -73.1577 137 133 138 0.452188 0.511817 0.730458 
-48.0022 6.36135 -73.065 118 111 113 0.376407 0.619675 0.68871 
-46.8784 4.05992 -73.2601 69 66 76 0.525174 -0.0149274 0.850864 
-47.4075 3.04465 -72.2249 29 39 33 0.622001 0.135736 0.771162 
-49.4085 5.87221 -72.3174 52 47 57 0.537186 0.0840689 0.839264 
-48.8079 4.7896 -72.4329 97 89 99 0.504629 0.122904 0.854543 
-48.9401 4.74381 -72.3125 84 77 88 0.488254 0.0948203 0.867535 
-50.3165 5.1742 -71.8834 85 80 93 0.51072 0.0987106 0.854062 
-47.9132 2.42993 -71.7194 69 77 69 0.677667 0.185936 0.711474 
-51.3964 8.88661 -71.7261 51 48 56 0.490786 -0.31404 0.812716 
-50.5919 8.33843 -71.9423 124 126 124 0.571421 0.308919 0.760294 
-49.5866 9.50084 -71.9498 40 63 34 0.224588 0.791478 0.568439 
-47.4041 3.2748 -72.044 38 54 40 0.765414 -0.142298 0.627609 
-51.2387 9.61736 -71.8051 74 69 80 0.515913 0.126435 0.847259 
-50.7632 5.54865 -71.6711 49 43 57 0.393534 0.310846 0.865162 
-47.3497 5.31833 -73.2045 106 96 107 0.602543 0.132411 0.787026 
-50.2083 3.7965 -71.6463 67 61 73 0.560869 -0.0461563 0.826617 
-50.0496 9.65007 -71.5162 114 153 106 0.0880251 0.806656 0.584429 
-47.9816 6.6836 -73.0952 87 82 87 0.487451 0.365186 0.793114 
-49.0896 6.41384 -72.4651 107 100 108 0.454172 0.493809 0.741539 
-49.6907 7.97216 -72.1915 104 98 110 0.436949 0.0252341 0.899132 
-47.5355 2.83383 -71.845 52 74 52 0.857405 -0.228339 0.461214 
-49.3549 10.2973 -72.697 103 98 103 0.527284 0.371533 0.764156 
-48.1983 4.3741 -72.4674 78 78 82 0.608473 0.158535 0.777578 
-49.3802 6.94967 -72.3641 63 57 70 0.794505 0.094411 0.599873 
-50.8914 6.65153 -71.6948 85 78 92 0.522716 0.126675 0.843043 
-48.7084 7.50951 -72.726 92 85 95 0.514869 -0.164699 0.841299 
-49.3979 4.53983 -72.1494 104 99 109 0.439058 0.135865 0.888127 
-48.6098 10.8837 -73.1264 69 64 74 0.475148 0.0826954 0.876011 
-50.1776 4.44705 -71.8467 77 71 83 0.580268 0.125503 0.804697 
-50.8701 10.11 -71.6202 78 74 82 0.480619 0.334688 0.810549 
-47.2367 3.3659 -72.8298 41 43 46 0.395867 0.65757 0.641007 
-49.5524 2.64205 -72.0975 68 64 69 0.181495 0.832479 0.523487 
-49.1285 4.75549 -72.3665 52 48 57 0.429122 0.202026 0.880363 
-48.148 2.29843 -72.4575 67 69 65 0.528553 0.198397 0.825391 
-49.0371 4.88799 -72.3645 88 80 91 0.498507 0.141804 0.855209 
-47.9055 5.67359 -73.0003 142 133 137 0.34626 0.726658 0.593356 
-49.5648 4.32519 -71.9135 75 68 80 0.481422 0.561939 0.672649 
-49.5618 10.1436 -72.5252 109 102 108 0.422669 0.47489 0.771901 
-49.4293 9.02715 -71.3565 49 80 44 0.664323 0.143108 0.733618 
-49.6903 9.84213 -72.3181 50 51 46 -0.0599719 0.920902 0.385153 
-48.2561 3.07515 -70.9554 142 173 138 0.598786 0.125671 0.790988 
-49.4344 10.7563 -72.8195 91 86 93 0.640289 0.0737127 0.764589 
-46.7868 2.78469 -73.1231 106 103 108 0.603636 0.046651 0.795894 
-48.3919 4.64095 -72.7584 74 66 75 0.373977 0.667229 0.644164 
-49.328 3.75418 -72.1952 89 82 93 0.316224 0.573056 0.756048 
-47.8012 4.43373 -72.9322 95 93 100 0.559666 0.0665931 0.826038 
-48.5465 3.16602 -71.2477 97 138 93 0.582469 0.154227 0.798088 
-49.6094 4.04739 -72.1078 101 94 106 0.340995 0.510692 0.789251 
-49.6974 2.87075 -70.8735 97 89 102 0.281874 0.83005 0.481211 
-47.5198 5.01041 -72.8099 75 70 78 0.617473 0.119941 0.777394 
-48.908 2.09338 -72.041 92 90 94 0.496764 0.119511 0.859618 
-48.6977 9.47833 -72.9342 118 113 121 0.639228 0.00414186 0.769006 
-49.6695 10.6767 -72.6173 89 84 91 0.635311 0.0920106 0.766755 
-48.5233 5.26125 -72.6791 63 60 65 0.768127 0.0856702 0.63454 
-50.1643 9.7361 -71.5606 123 154 117 0.381472 -0.74166 0.551743 
-50.473 10.8755 -72.5263 84 81 88 0.477986 -0.524619 0.704488 
-48.091 4.16807 -72.792 69 71 72 0.584677 0.187768 0.789237 
-50.3594 8.12324 -72.1163 94 88 98 0.431907 0.0528037 0.900371 
-49.9424 8.0978 -71.6855 79 73 82 0.518403 -0.320612 0.792758 
-49.7177 4.11594 -72.0251 82 75 88 0.443099 0.388711 0.807816 
-49.4363 2.05709 -71.9033 88 83 94 0.469726 -0.115647 0.875205 
-49.8436 4.45489 -72.0209 94 87 100 0.489309 0.286082 0.823853 
-49.4769 4.31109 -72.0786 120 112 125 0.445533 0.37527 0.812818 
-48.7815 8.44789 -72.814 81 74 83 0.790408 0.113336 0.602005 
-49.5461 2.46665 -71.9693 82 80 88 0.49885 0.203458 0.842469 
-47.5992 3.26152 -71.2472 53 90 48 0.623654 0.0978567 0.775551 
-49.2798 4.57113 -72.2519 86 78 91 0.452122 0.350593 0.820165 
-49.7021 4.50792 -72.1202 79 71 85 0.548704 0.124373 0.826714 
-50.1104 5.8678 -71.983 57 50 63 0.412875 0.0864157 0.906679 
-49.9931 3.00785 -71.7736 84 81 90 0.596177 0.151672 0.788396 
-50.4448 4.62701 -71.7911 99 93 106 0.596841 0.138419 0.79033 
-49.5004 4.63487 -72.2158 96 89 102 0.427914 0.408682 0.806145 
-47.9491 6.03429 -73.0438 124 119 119 0.555423 0.143669 0.819063 
-48.443 6.18712 -72.8032 97 93 95 0.472734 0.14982 0.868376 
-49.588 10.1449 -72.5108 102 101 103 0.541973 0.416776 0.729769 
-49.8254 7.37367 -72.1266 57 51 64 0.489321 -0.0978643 0.866595 
-51.3214 8.73749 -71.7588 66 63 72 0.484087 0.0799796 0.871357 
-51.0196 9.8485 -71.5293 69 66 73 0.235658 0.597729 0.76628 
-48.9198 4.31291 -72.4479 77 75 80 0.535433 0.0517259 0.842992 
-48.1268 4.49172 -72.947 106 97 107 0.361969 0.627304 0.689543 
-49.4595 9.20144 -71.646 87 119 83 0.708058 -0.361388 0.606673 
-46.93 4.66917 -73.2969 75 71 81 0.524002 0.126986 0.842198 
-50.7825 5.97698 -71.7081 55 49 63 0.537325 -0.189199 0.82188 
-50.2681 7.06897 -71.9396 110 103 117 0.522769 0.133255 0.841995 
-47.4673 3.78651 -72.6991 38 37 43 0.315163 0.809287 0.495708 
-49.9139 8.9937 -71.2349 128 164 119 0.222166 -0.47607 0.850881 
-47.8595 5.9586 -73.1152 125 120 121 0.534856 0.192427 0.82274 
-48.4582 7.94997 -72.8339 91 85 96 0.462156 -0.171658 0.870026 
-50.6806 9.6836 -71.5862 89 101 87 0.526114 0.126792 0.840909 
-50.6891 6.59515 -71.7298 66 59 73 0.618143 -0.0887218 0.781042 
-48.506 3.67767 -71.5349 112 151 109 0.645577 0.175512 0.743253 
-47.2528 3.8895 -73.0927 85 83 92 0.520466 0.313553 0.794229 
-49.9291 3.40978 -71.8703 49 47 55 0.601134 0.132101 0.788154 
-49.0422 11.1099 -72.9249 97 88 99 0.572731 0.19702 0.795715 
-49.3566 9.3445 -71.477 72 107 66 0.704328 0.00415124 0.709863 
-50.3283 8.81187 -71.3678 96 112 95 0.385441 -0.446216 0.807667 
-47.4591 4.71856 -73.1542 110 106 115 0.57556 0.00136066 0.817758 
-50.8296 10.3243 -71.9842 88 85 93 0.386937 0.313526 0.867168 
-49.2921 5.19686 -72.2183 81 74 85 0.505878 0.123208 0.85376 
-49.7069 9.87296 -72.2813 87 96 82 0.521887 0.445675 0.727329 
-48.1477 6.61988 -73.0339 75 70 75 0.430817 0.263361 0.863156 
-50.05 6.88029 -72.0498 89 80 94 0.604993 0.225511 0.763628 
-49.2947 3.50771 -72.0842 125 139 126 0.40124 0.354403 0.844633 
-48.2518 6.7599 -72.9171 108 100 106 0.488802 -0.00399566 0.872386 
-48.1752 6.57275 -72.9238 99 92 96 0.477616 0.0284134 0.878109 
-47.8901 6.91572 -73.0632 124 117 123 0.44387 0.11132 0.88915 
-49.3499 3.6009 -72.1183 107 112 107 0.546628 0.134079 0.826572 
-47.9796 6.66042 -72.9775 83 76 80 0.468912 0.0563794 0.881444 
-48.3421 6.50398 -72.8325 133 125 129 0.447247 0.111459 0.887439 
-49.5275 7.11632 -72.3018 85 76 90 0.548139 0.265431 0.793152 
-48.5855 4.26807 -72.5435 80 73 84 0.369708 0.698338 0.612894 
-50.3099 10.0236 -72.1375 106 108 105 0.542146 0.388183 0.745246 
-47.9105 2.48332 -72.17 40 48 43 0.438405 -0.611766 0.65844 
-48.2457 8.85755 -73.1617 73 66 75 0.402889 0.118497 0.907546 
-47.7085 2.84115 -71.5415 30 60 28 0.861382 -0.185323 0.472945 
-47.4239 4.36484 -73.0616 72 65 76 0.582705 0.277857 0.763709 
-51.8686 10.4788 -71.6707 66 59 72 0.480574 0.175964 0.859119 
-49.502 8.8263 -72.1999 24 28 30 0.486143 -0.482825 0.728385 
-48.1099 9.25784 -73.1866 94 87 98 0.561293 0.128169 0.817632 
-49.9074 3.55196 -71.9416 54 52 60 0.838921 -0.0345519 0.543156 
-49.6513 10.0792 -72.6837 106 99 105 -0.0199251 0.896628 0.442336 
-50.6131 4.87783 -71.7761 83 77 91 0.327304 0.436927 0.837835 
-49.3108 8.45342 -72.4203 71 70 75 0.710335 -0.293434 0.639782 
-49.4576 9.19026 -71.3239 49 85 44 0.665076 0.123493 0.736494 
-49.1254 9.16725 -72.3014 36 38 42 0.669037 0.230324 0.706641 
-47.6222 7.18349 -73.2896 50 44 52 0.503534 0.126246 0.854702 
-47.4404 4.05033 -73.0742 70 68 76 0.567706 0.273574 0.776445 
-51.6623 9.55493 -71.6184 68 62 73 0.489784 0.258025 0.832787 
-50.7085 9.98315 -71.6843 91 90 94 0.285214 0.524731 0.802066 
-50.4386 9.23179 -71.3239 108 146 102 0.431982 -0.771047 0.467844 
-48.8975 8.51323 -72.766 106 100 109 0.630275 0.16858 0.757849 
-48.1266 4.95154 -72.8974 71 68 74 0.595437 0.113207 0.795386 
-49.0695 10.8062 -72.9587 97 92 102 0.426542 0.17906 0.886566 
-48.6818 8.26514 -72.8037 80 74 84 0.450887 -0.00394362 0.892572 
-49.8273 8.82977 -71.538 113 148 105 0.427137 0.576718 0.696383 
-50.3351 8.37301 -72.0242 79 77 81 0.477412 -0.422013 0.770703 
-48.0401 5.11906 -72.8372 105 97 104 0.442241 0.49485 0.748029 
-48.2488 9.88021 -73.198 66 61 72 0.644981 0.1201 0.754702 
-49.5602 10.4754 -72.682 84 79 86 0.470054 0.0507055 0.88118 
-47.3532 5.73896 -73.2133 128 124 131 0.619371 0.0794066 0.781072 
-50.1926 6.00862 -72.0186 91 84 98 0.435656 0.0960393 0.894975 
-49.2199 8.93742 -72.2185 36 37 41 0.702312 -0.272325 0.657721 
-50.1315 4.38112 -71.8413 91 86 98 0.605846 0.132482 0.784474 
-50.7405 8.73337 -71.5106 98 104 97 0.612798 0.0946125 0.784556 
-49.3157 9.26131 -71.4307 80 114 75 0.484807 -0.332212 0.809072 
-50.3189 8.46749 -71.8768 61 61 65 0.350287 -0.90842 0.228195 
-50.3192 8.11835 -72.0613 83 78 88 0.388993 -0.030124 0.920748 
-48.432 4.75087 -72.5944 88 80 89 0.590325 0.15772 0.791606 
-50.1662 5.08379 -71.8234 90 84 97 0.487486 0.128743 0.863587 
-50.3114 10.7199 -72.4391 85 80 88 0.616624 0.289893 0.731941 
-47.3916 3.8336 -73.0063 62 61 69 0.546057 0.32187 0.773448 
-48.9098 6.9911 -72.8081 73 67 76 0.440272 0.312702 0.841652 
-47.7104 3.23585 -71.2368 48 86 43 0.564303 0.25167 0.786273 
-47.86 4.75206 -73.0113 59 56 63 0.583919 -0.0263526 0.811384 
-47.2733 3.64512 -72.924 45 44 52 0.559932 0.33725 0.756795 
-48.5113 4.89422 -72.5633 103 95 104 0.590325 0.15772 0.791606 
-48.357 4.95441 -72.6708 122 114 122 0.603877 0.113135 0.789007 
-48.0482 4.4831 -72.8693 88 79 89 0.581606 0.1578 0.798018 
-48.716 7.05804 -72.7943 74 68 77 0.506771 0.228124 0.83135 
-47.7623 3.48991 -71.251 101 141 97 0.535634 0.306758 0.786763 
-47.9651 6.18274 -73.0046 131 125 126 0.480718 0.368175 0.795837 
-50.0145 6.89523 -71.9889 86 79 93 0.53272 0.0809735 0.842409 
-48.8458 5.56536 -72.5479 103 99 105 0.534721 0.0122455 0.84494 
-48.9489 9.09231 -72.584 41 39 46 0.604427 0.380443 0.69995 
-48.5526 5.49971 -72.6753 118 110 115 0.487638 0.387194 0.782489 
-49.1034 10.5396 -72.902 92 86 94 0.561919 0.105995 0.820373 
-48.3489 5.39352 -72.7561 126 117 122 0.596659 0.128807 0.79209 
-49.7139 4.76961 -72.146 85 81 92 0.537196 0.156248 0.828859 
-50.6034 5.04646 -71.7574 86 81 95 0.521766 0.104928 0.846611 
-49.9664 7.93935 -71.7771 72 66 77 0.472384 -0.134348 0.871094 
-49.091 3.63967 -72.1765 80 78 83 0.51718 0.21511 0.828404 
-48.6565 4.46152 -72.4066 65 58 68 0.475334 0.592907 0.650015 
-48.6102 4.66158 -72.559 104 97 106 0.461148 0.608715 0.645607 
-47.9386 4.03255 -72.8276 85 85 90 0.497483 0.40288 0.768244 
-47.8387 4.85054 -72.913 95 86 95 0.576876 0.38294 0.721506 
-47.4173 6.66973 -73.2775 130 123 129 0.581702 0.204133 0.78737 
-47.6914 6.44947 -73.1682 135 130 134 0.533353 0.253459 0.807027 
-49.5861 10.3527 -72.6116 103 95 103 0.159809 0.816965 0.554102 
-47.3335 3.08803 -72.2114 32 42 34 0.748815 0.222621 0.624272 
-48.7138 4.9407 -72.5075 97 93 99 0.53934 0.162848 0.826192 
-47.7756 4.81002 -72.5273 78 74 81 0.610658 0.155303 0.776516 
-50.8285 7.83344 -71.8435 96 89 102 0.29519 0.327824 0.897438 
-49.9213 10.5391 -72.5391 98 91 99 0.205238 0.760771 0.615715 
-49.4587 8.96403 -71.5019 122 144 114 0.681844 0.166266 0.712351 
-48.1859 3.34117 -70.9655 60 100 57 0.561092 0.109304 0.820505 
-49.2984 4.55622 -72.2011 85 80 89 0.471535 0.245686 0.846932 
-48.2229 6.00019 -72.954 120 116 117 0.465163 0.115224 0.877694 
-48.765 10.8982 -72.9305 78 70 81 0.564883 0.0376589 0.824311 
-50.9413 8.42586 -71.7957 61 58 67 0.42987 0.0498595 0.901513 
-49.3195 4.18465 -72.2104 95 88 100 0.464141 0.337413 0.818979 
-48.0248 5.84632 -72.9592 141 136 135 0.549804 0.137082 0.823969 
-50.8714 8.12428 -71.8516 64 59 70 0.426736 0.00391501 0.904368 
-48.8047 6.32286 -72.6458 91 87 91 0.509184 0.385548 0.76947 
-49.9382 6.37415 -72.0337 52 45 58 0.544255 0.0996117 0.832985 
-47.9993 3.84506 -71.2247 108 147 104 0.555964 0.439792 0.705327 
-47.4267 5.29017 -73.1648 65 59 68 0.60266 -0.0852684 0.79343 
-49.6612 3.51347 -72.0143 78 71 82 0.565538 0.0347382 0.82399 
-49.6258 8.73765 -71.7579 61 75 60 0.712567 -0.0181992 0.701368 
-48.43 5.77107 -72.6864 110 102 105 0.509129 0.21125 0.834363 
-47.4524 2.96273 -72.1917 26 38 30 0.762147 -0.3193 0.563187 
-50.253 10.1252 -71.9382 78 79 79 0.444692 0.451208 0.773732 
-49.6587 10.3346 -72.5896 112 104 111 0.028534 0.870967 0.490513 
-47.7016 6.0632 -73.1623 145 137 140 0.528771 0.219172 0.819979 
-47.8919 6.19758 -73.0221 147 140 142 0.531328 0.2159 0.819194 
-49.4122 8.56132 -71.8347 87 88 86 0.702201 -0.247743 0.667486 
-49.4011 10.5767 -72.7642 97 94 102 0.459008 -0.354183 0.81478 
-48.5212 10.5867 -73.0947 61 54 64 0.496481 0.318826 0.807376 
-49.1432 7.60932 -72.2009 80 73 86 0.813714 0.00683794 0.581225 
-48.8136 3.55978 -71.2244 127 147 126 0.306053 -0.116273 0.944887 
-48.6567 4.47009 -72.2996 52 50 56 0.383896 0.677172 0.627744 
-49.0676 4.43515 -72.299 44 41 49 0.514831 0.123269 0.848383 
-49.7627 10.0658 -72.4008 109 110 106 0.596463 -0.070088 0.799575 
-50.3298 10.7966 -72.403 88 82 90 0.636723 0.14601 0.757143 
-49.4547 8.00552 -72.2124 108 102 111 0.485522 0.11601 0.866493 
-48.5529 4.03441 -71.8603 71 80 70 0.31003 0.579901 0.75339 
-49.7111 10.5316 -72.6784 108 100 109 0.160199 0.815968 0.555457 
-47.8526 3.74366 -71.5737 92 132 86 0.259591 0.81919 0.511411 
-49.7202 2.80768 -71.8976 30 28 38 0.595093 0.158189 0.787934 
-49.7867 10.7161 -72.6495 105 98 108 0.130296 0.838872 0.528504 
-51.0307 9.22504 -71.6521 85 84 88 0.166169 0.818867 0.549404 
-49.7001 6.05306 -72.1867 43 36 48 0.533872 0.0839959 0.841383 
-49.9765 6.7433 -71.9829 95 87 101 0.565363 0.323755 0.758649 
-50.9914 10.4461 -71.6109 65 61 71 0.588068 0.151132 0.794566 
-48.011 6.34027 -72.9763 116 111 113 0.526238 0.0989385 0.844562 
-49.6505 8.01194 -72.2108 87 80 91 0.408246 0.049525 0.911527 
-49.5904 8.78514 -72.139 28 32 33 0.480131 -0.506712 0.716043 
-49.483 6.40488 -72.3557 59 53 65 0.517223 0.356095 0.778252 
-50.0287 8.65213 -72.035 60 62 62 0.465719 -0.351276 0.812226 
-49.9424 7.16479 -72.0326 111 102 115 0.51087 0.418881 0.7507 
-51.02 9.50309 -71.8857 91 99 91 0.392416 0.202772 0.897159 
-49.2551 10.7886 -72.7755 74 68 77 0.495115 -0.0482703 0.867486 
-48.7765 4.5139 -72.4652 42 40 46 0.520283 0.0543995 0.85226 
-49.7538 10.5439 -72.6157 84 79 86 0.466672 -0.00132202 0.884429 
-49.2412 4.8851 -72.3677 52 48 58 0.472113 -0.0173866 0.881367 
-51.3353 10.3453 -71.8591 83 79 89 0.465506 0.106118 0.87866 
-48.8573 8.24846 -72.7293 67 61 71 0.465046 -0.143425 0.873591 
-50.0881 9.9003 -71.858 112 130 104 0.00130356 0.903365 0.42887 
-49.4989 9.17859 -71.3982 42 78 38 0.722192 0.0125236 0.691579 
-50.2383 8.42858 -71.619 125 129 124 0.450062 -0.177386 0.875202 
-47.2337 5.36218 -73.3014 97 88 99 0.610599 0.110349 0.784215 
-48.9276 5.53945 -72.5122 104 97 104 0.504629 0.122904 0.854543 
-49.8327 2.77504 -71.8853 119 112 124 0.598995 0.135257 0.789247 
-48.6452 4.40793 -72.5273 90 88 94 0.570445 0.0938708 0.815954 
-47.556 4.57406 -72.989 93 84 96 0.569018 0.385358 0.726441 
-50.8764 8.65152 -71.7469 91 97 91 0.568335 0.0968918 0.817072 
-48.1854 9.20003 -73.1577 87 80 91 0.534008 0.13021 0.835393 
-48.1697 9.10465 -73.1702 85 79 90 0.527133 0.0316555 0.849193 
-47.4276 3.38976 -72.3338 28 37 31 0.897178 -0.401483 0.184074 
-48.4936 8.41887 -72.9979 120 112 122 0.41752 0.101259 0.903008 
-50.4198 4.68779 -71.7402 92 86 99 0.57936 0.151203 0.800924 
-47.6557 6.35772 -73.0768 138 130 134 0.567569 0.259415 0.78139 
-46.9103 2.57077 -73.0165 107 105 106 0.402571 0.503621 0.764396 
-50.3711 8.2685 -71.4402 78 73 80 0.260005 0.0381997 0.964851 
-49.3988 8.79936 -71.4474 40 58 40 0.70919 0.0800934 0.700453 
-48.8224 3.72364 -71.4194 84 103 84 0.132552 0.609142 0.781906 
-50.7424 10.4199 -71.817 80 75 84 0.51902 0.401136 0.75479 
-51.022 8.82387 -71.8178 64 62 68 0.468049 -0.218222 0.856335 
-48.6184 8.24287 -72.8621 82 74 86 0.654398 0.279999 0.702398 
-48.5554 10.8443 -73.2207 70 64 74 0.606177 0.067353 0.792473 
-49.0288 7.32099 -72.6544 112 103 114 0.629082 0.0438237 0.776103 
-48.6336 4.42008 -72.3624 72 66 76 0.492431 0.522478 0.696081 
-50.8397 6.24459 -71.7151 60 54 67 0.492029 0.157155 0.856277 
-51.0523 9.31737 -71.7189 73 72 77 0.5204 0.129736 0.84401 
-47.795 2.96835 -71.121 118 155 115 0.608087 0.151646 0.779252 
-47.7984 2.36011 -72.6017 80 81 80 0.554538 0.137525 0.820716 
-47.3692 4.20011 -73.0843 77 73 82 0.544191 0.308002 0.780379 
-50.5949 10.4192 -72.2651 48 43 51 0.462939 -0.336539 0.820018 
-47.3958 4.63738 -73.0555 102 94 105 0.569018 0.385358 0.726441 
-47.944 2.25752 -72.4867 91 91 91 0.47962 -0.786447 0.389186 
-48.4577 3.37106 -71.0263 121 159 117 0.430904 0.0784714 0.898979 
-49.0249 10.3545 -72.8644 63 58 66 0.527208 0.129977 0.839736 
-48.3617 7.63021 -72.8773 89 81 91 0.422128 0.1628 0.891798 
-49.0768 4.61423 -72.4506 76 69 80 0.43854 0.399987 0.804794 
-49.817 2.49887 -71.9117 81 77 86 0.68813 0.189351 0.700445 
-49.4058 8.8971 -71.3974 75 102 72 0.699685 0.0678046 0.711226 
-50.384 5.5203 -71.8066 41 35 48 0.546315 0.146572 0.824655 
-50.1561 7.08083 -71.9542 73 67 81 0.450389 0.053067 0.891254 
-50.2339 10.8827 -72.4122 101 97 104 0.395601 0.0802078 0.914913 
-49.9599 7.18891 -71.8393 84 76 89 0.467878 0.319795 0.823906 
-47.1851 3.31141 -73.0627 67 66 72 0.540053 0.31065 0.782201 
-48.7483 6.37661 -72.6944 75 71 77 0.459207 -0.248674 0.852813 
-48.8096 3.65131 -71.8347 139 155 139 -0.184452 0.97496 0.124223 
-49.5495 10.9442 -72.7159 88 82 90 0.593533 0.0914243 0.7996 
-48.5131 3.79311 -71.7554 105 132 102 -0.247228 0.968001 0.0430496 
-48.8091 3.70979 -72.0547 105 112 106 -0.249578 0.967876 0.0304364 
-49.5388 1.72882 -71.7159 82 75 86 0.257836 0.726052 0.637471 
-49.8745 4.4613 -71.9675 88 84 95 0.573606 0.352613 0.739351 
-47.3369 3.47418 -72.7559 35 37 42 0.516405 0.414764 0.749197 
-48.138 6.0861 -73.0002 152 144 146 0.433756 0.129416 0.891688 
-47.5766 5.94587 -73.0549 133 125 129 0.549592 0.156388 0.820665 
-49.8133 7.20906 -72.1571 94 86 99 0.620705 0.16542 0.766396 
-48.0427 7.77206 -73.0141 91 83 93 0.522782 0.313033 0.792912 
-48.6344 9.32286 -72.9332 109 104 113 0.658157 -0.0125231 0.752776 
-49.4656 5.78207 -72.3602 72 65 76 0.495708 0.315163 0.809287 
-49.1807 10.3593 -72.7501 87 81 88 0.510712 0.151595 0.846281 
-50.7069 8.2452 -72.0309 91 88 97 0.489223 -0.360902 0.793984 
-49.1353 7.05516 -72.5141 100 91 102 0.448456 0.223478 0.865416 
-49.904 5.20529 -72.0532 44 38 50 0.541905 0.133641 0.829746 
-47.623 5.86404 -73.0463 139 134 135 0.463552 0.149673 0.873337 
-49.4449 2.65907 -72.1239 89 87 96 0.49572 -0.154453 0.854638 
-47.5758 2.77356 -72.3841 30 36 31 0.884051 -0.373733 0.280675 
-51.1318 8.23325 -71.6087 106 106 106 0.36028 0.741752 0.565688 
-50.7831 6.08965 -71.7325 58 52 65 0.511002 0.142026 0.847765 
-50.0118 5.00405 -72.012 83 76 90 0.370381 0.653517 0.660101 
-49.6353 1.9639 -71.8241 83 77 90 0.451857 -0.0281572 0.891646 
-48.7449 4.45743 -72.2059 80 75 85 0.263596 0.75922 0.595064 
-49.5522 5.82467 -72.2563 63 58 70 0.540755 0.102383 0.834926 
-50.1401 4.87227 -71.8631 95 88 102 0.332868 0.62839 0.703082 
-49.7699 5.12338 -72.0419 71 64 77 0.398003 0.606087 0.68866 
-48.8416 8.89036 -72.8119 81 77 86 0.554538 0.137525 0.820716 
-49.8338 8.57498 -72.1881 58 54 61 0.419421 0.0665101 0.905352 
-49.526 5.14039 -72.2213 124 117 130 0.432452 0.50809 0.744869 
-48.07 3.70551 -71.3464 81 120 78 0.456639 0.361174 0.81304 
-49.9006 4.96437 -72.0496 67 60 74 0.391632 0.609756 0.689074 
-49.2124 7.90599 -72.3984 57 51 63 0.80963 0.0349581 0.585898 
-49.9982 5.17614 -72.0146 83 77 90 0.388424 0.629744 0.672718 
-49.5967 5.00898 -72.1534 81 74 86 0.539658 0.336682 0.771631 
-48.3608 9.34758 -73.0972 70 63 74 0.664264 0.179489 0.725628 
-48.2388 2.21045 -72.4677 84 85 84 0.432537 0.215525 0.875478 
-50.7281 10.4681 -71.9501 80 75 84 0.602929 0.161688 0.781239 
-50.8998 7.90622 -71.8613 94 87 99 0.550328 0.234083 0.801464 
-49.6874 4.84159 -72.0298 99 92 105 0.358286 0.600415 0.714936 
-50.0727 5.06795 -71.9505 62 55 68 0.443708 0.560036 0.69963 
-47.8951 3.44336 -71.1427 109 150 105 0.564246 0.112266 0.817938 
-47.3704 3.60676 -72.3326 29 36 34 0.812189 -0.109361 0.573053 
-48.165 3.86558 -71.4818 108 139 105 0.161773 0.778629 0.606272 
-49.5821 5.37584 -72.233 79 72 84 0.506129 0.388954 0.769771 
-49.7228 5.30702 -72.1635 88 81 93 0.444389 0.507165 0.738446 
-50.0535 6.13847 -72.0947 65 58 71 0.473168 0.0679919 0.878344 
-50.3757 4.78588 -71.8372 100 95 108 0.521756 0.0749405 0.849797 
-49.4847 4.93431 -72.0756 87 80 93 0.529391 0.489311 0.693051 
-49.6015 5.26741 -72.1628 79 74 85 0.520595 0.126868 0.844326 
-50.583 4.94166 -71.7994 65 60 73 0.558484 0.180107 0.809726 
-48.9561 10.5884 -72.9148 77 72 81 0.324231 0.100071 0.94067 
-50.9408 8.72427 -71.8646 79 76 82 0.496525 -0.307373 0.811779 
-48.3227 5.50743 -72.8718 109 105 108 0.581583 0.0728766 0.810216 
-50.2371 5.07572 -71.9208 80 75 87 0.524002 0.126986 0.842198 
-50.8436 7.68128 -71.6365 93 86 96 0.463777 0.121296 0.877609 
-49.0074 11.0725 -73.01 102 95 105 0.393065 0.0519646 0.918041 
-50.1934 3.8169 -71.7423 77 72 84 0.541019 0.11812 0.832674 
-48.8633 4.81852 -72.4425 100 92 103 0.476621 0.309882 0.822682 
-50.1761 6.33312 -71.995 60 54 68 0.377564 -0.159793 0.912092 
-48.8235 10.744 -73.0347 42 36 45 0.618972 0.145376 0.771842 
-49.0193 8.62951 -72.6282 72 67 76 0.629092 -0.205575 0.749655 
-50.4223 6.61667 -71.841 90 84 97 0.430931 0.120095 0.894358 
-49.5641 5.29124 -72.2747 59 55 65 0.418497 0.516967 0.74673 
-49.0016 8.20477 -72.636 102 96 106 0.807423 0.0435306 0.588365 
-49.3896 3.87533 -72.1555 48 46 50 0.449775 0.105746 0.88686 
-47.4805 3.58312 -72.5285 30 36 35 0.639068 0.1754 0.748884 
-47.3008 5.16777 -73.2151 100 91 102 0.599234 0.132337 0.789561 
-49.4543 9.64086 -72.4212 77 87 79 0.648436 0.142927 0.747732 
-47.1097 3.39414 -73.0463 82 81 88 0.571957 0.241562 0.783909 
-47.2494 3.28875 -72.9478 42 43 48 0.555289 0.280017 0.783099 
-49.6908 5.96862 -72.1984 68 63 75 0.539495 0.0901544 0.837148 
-49.6308 7.74092 -72.2232 104 96 108 0.456171 0.0227417 0.889601 
-49.0905 5.72558 -72.5235 90 83 89 0.347031 0.614229 0.708726 
-46.9677 2.55904 -72.9419 96 94 95 0.641449 0.0949754 0.761264 
-48.6033 8.26344 -72.824 77 70 80 0.581604 0.148017 0.799892 
-50.4708 7.13898 -71.7885 112 103 116 0.608974 0.205047 0.766228 
-49.1981 6.72653 -72.6163 74 67 77 0.495034 0.394404 0.774201 
-47.4317 3.43653 -72.1704 75 90 76 0.748815 0.222621 0.624272 
-47.3313 2.7781 -72.6947 29 33 31 0.374103 0.0625725 0.925274 
-48.6964 2.06552 -72.2245 72 71 77 0.466172 0.118325 0.876746 
-50.321 7.20125 -71.8763 79 71 84 0.53387 0.21263 0.818396 
-49.5384 8.284 -71.7969 82 78 82 0.702747 -0.244777 0.668005 
-51.1834 7.96988 -71.6538 85 78 90 0.667001 0.159533 0.727776 
-49.6416 6.9286 -72.1096 76 69 82 0.42761 -0.0526081 0.902431 
-50.902 9.25152 -71.9381 95 106 94 0.47665 -0.266863 0.837609 
-48.8539 7.278 -72.7076 96 88 98 0.470377 0.188447 0.86211 
-51.8409 10.4192 -71.5379 78 71 85 0.690324 0.261847 0.674455 
-49.361 8.38825 -72.353 93 88 98 0.784777 0.148552 0.601712 
-50.7404 7.27607 -71.7122 91 82 95 0.581253 0.170602 0.795638 
-50.7455 6.83855 -71.6243 84 75 89 0.600149 0.239746 0.763114 
-50.2289 8.80246 -71.5585 122 148 117 0.399729 -0.415654 0.816975 
-50.3923 7.42277 -71.8763 56 47 59 0.606252 0.181723 0.774232 
-49.2395 9.24858 -71.7403 72 96 71 0.714697 0.126825 0.68784 
-46.4472 2.89144 -73.1666 92 87 93 0.419243 -0.0442013 0.906797 
-49.9066 10.7421 -72.4943 88 82 90 0.619468 0.0293653 0.784473 
-49.3491 10.545 -72.8074 72 67 73 0.459008 -0.354183 0.81478 
-50.4549 6.51463 -71.7656 84 76 90 0.593929 0.174685 0.785323 
-47.4551 4.31529 -72.8732 66 63 71 0.50224 0.312117 0.806435 
-49.4174 8.81371 -71.9599 67 77 69 0.683739 0.136748 0.716799 
-47.134 4.79769 -73.2258 92 87 96 0.392491 0.0629593 0.917598 
-48.6124 7.97874 -72.7825 74 67 78 0.443543 -0.117617 0.888502 
-49.3663 7.36302 -72.3453 72 66 79 0.524911 -0.0661416 0.848583 
-49.9616 7.38628 -72.0394 92 84 96 0.497907 0.234399 0.834952 
-48.4169 4.49618 -72.526 72 69 74 0.61813 0.161711 0.769262 
-48.2835 5.98822 -72.8617 100 95 95 0.537962 0.0691867 0.840125 
-50.2321 7.48747 -71.9756 93 86 97 0.598411 0.178153 0.781131 
-47.3407 3.88593 -72.7069 38 36 44 0.649251 0.0125123 0.760471 
-49.5299 10.8871 -72.7443 68 62 70 0.338266 0.0613841 0.939047 
-47.5222 2.79859 -72.4411 29 34 31 0.920677 -0.35107 0.1706 
-49.9968 10.4558 -72.4578 93 90 97 0.611248 0.129388 0.780791 
-49.7419 10.4491 -72.6282 97 90 98 0.20638 0.733967 0.64707 
-48.0226 9.19035 -73.1819 81 74 84 0.381764 0.0910256 0.919766 
-50.1004 6.70375 -71.8491 90 82 97 0.588244 0.138498 0.796735 
-51.4654 10.656 -71.8629 89 84 95 0.474171 0.165886 0.864664 
-48.23 8.9798 -73.1077 41 34 44 0.410595 0.0865134 0.907704 
-47.1015 3.67755 -73.1013 73 72 79 0.535894 0.373008 0.757418 
-50.1142 6.65673 -71.9389 99 90 105 0.582652 0.171012 0.794526 
-49.8058 9.81247 -71.8501 68 93 58 0.0533223 0.887339 0.458025 
-50.4199 10.8724 -72.2795 88 84 91 0.592856 0.161414 0.788966 
-47.4496 3.21068 -72.3431 30 38 33 0.893319 -0.412635 0.178085 
-49.1683 9.07601 -72.3525 35 37 42 0.731679 -0.0861657 0.676182 
-48.0374 9.20749 -73.1425 86 79 89 0.411974 0.486878 0.770212 
-48.1728 3.13457 -70.9899 90 128 86 0.468768 -0.137024 0.872629 
-49.0953 7.14846 -72.6321 55 49 60 0.529519 -0.0899183 0.843519 
-49.3119 3.52939 -72.1696 91 103 94 0.352654 0.560672 0.749188 
-48.5677 2.28835 -72.326 36 36 38 0.448726 -0.126783 0.884631 
-49.1086 8.14297 -72.5247 68 62 73 0.74838 0.216268 0.627021 
-48.1476 5.20296 -72.8907 95 92 97 0.535108 0.133411 0.834183 
-49.4891 5.36514 -72.1762 77 70 82 0.502657 0.113782 0.856965 
-48.6737 11.2178 -73.0836 104 96 107 0.545511 0.130864 0.827824 
-50.3646 6.72807 -71.9652 76 67 82 0.587185 0.259747 0.766646 
-48.4228 2.38534 -72.3113 62 65 63 0.349256 -0.852186 0.389615 
-48.4285 5.73377 -72.7605 127 122 123 0.543228 0.133967 0.828828 
-49.8232 6.43068 -72.0989 82 76 90 0.570633 0.0697282 0.818239 
-50.4002 10.3378 -72.0354 87 82 90 0.51016 0.51685 0.687461 
-48.4065 2.05646 -72.3544 53 52 55 0.459151 0.210881 0.862965 
-49.4643 5.03743 -72.218 68 63 74 0.561394 -0.0520591 0.82591 
-47.8601 4.48445 -72.961 93 84 95 0.55199 0.333125 0.764418 
-49.5367 7.80939 -72.3459 69 62 75 0.45437 0.0704343 0.888024 
-48.1107 2.31967 -71.2885 64 65 67 0.59622 0.161508 0.786407 
-50.0228 6.47924 -71.9271 74 66 80 0.564072 0.102954 0.819282 
-50.2575 5.66133 -71.963 54 49 62 0.56751 0.187141 0.801817 
-48.9849 11.1693 -73.0851 89 81 92 0.595093 0.158189 0.787934 
-50.2253 9.43024 -71.3646 125 162 118 0.372316 0.703628 0.605218 
-50.3328 6.46259 -72.0138 97 91 105 0.631389 -0.149183 0.760982 
-47.3912 6.55016 -73.3132 100 96 102 0.519945 0.270122 0.810365 
-47.0058 4.89355 -73.2689 75 70 79 0.489569 0.160249 0.857113 
-48.1313 4.58681 -72.799 70 66 73 0.476858 0.252995 0.841784 
-49.3163 2.9961 -72.1327 32 32 36 0.502469 -0.123083 0.85579 
-48.9191 8.74237 -72.6809 90 85 94 0.604505 0.0946815 0.790955 
-46.8451 3.81116 -73.2272 81 77 86 0.489765 0.424244 0.761674 
-49.746 10.58 -72.6025 76 71 79 0.497359 0.0892696 0.86294 
-49.2056 8.59873 -72.4479 40 36 45 0.673435 -0.146137 0.724658 
-50.9917 9.95854 -71.882 93 89 98 0.166075 0.86271 0.47765 
-48.2059 7.69781 -72.9527 90 82 92 0.533493 0.165876 0.82938 
-48.1909 6.20201 -72.9322 123 118 118 0.514082 0.0988069 0.852031 
-47.0867 4.18991 -73.1702 87 83 92 0.507538 0.0231318 0.861319 
-49.9533 6.58242 -72.0046 96 90 103 0.578461 0.0699866 0.812702 
-51.2924 9.73396 -71.7791 59 56 64 0.495059 0.0860358 0.864589 
-48.6994 3.99062 -71.8847 77 83 77 0.149386 0.671483 0.725806 
-48.9791 10.9818 -73.0318 79 74 84 0.435798 0.0669407 0.897552 
-48.8126 7.68408 -72.766 35 29 40 0.461599 -0.143255 0.875445 
-47.6481 2.44827 -71.6901 78 80 74 0.393944 0.700528 0.595037 
-50.2747 8.56714 -72.1187 61 63 63 0.429093 0.0930395 0.898456 
-47.6901 2.6488 -71.6276 53 75 53 0.81808 -0.409837 0.403459 
-49.1095 2.454 -72.1186 67 66 71 0.542724 0.0261057 0.839505 
-48.1304 2.86245 -71.0416 114 149 111 0.463018 -0.280288 0.840865 
-49.406 8.44126 -72.3406 78 73 82 0.741246 -0.152476 0.653686 
-49.0808 8.63638 -72.4758 42 37 46 0.751444 -0.129971 0.646869 
-50.6232 7.46635 -71.8158 113 105 117 0.637258 0.175743 0.750345 
-47.6828 3.97173 -71.9912 65 86 59 -0.00842562 0.966539 0.25638 
-50.6722 7.03212 -71.7915 107 98 112 0.624817 0.171787 0.761638 
-50.5084 7.46576 -71.9442 90 84 97 0.56693 0.331113 0.754291 
-47.5756 3.8308 -72.5056 36 42 42 0.504403 0.432111 0.747568 
-46.932 4.16306 -73.1812 82 79 88 0.547265 0.275998 0.790143 
-49.439 6.24454 -72.341 46 41 52 0.555559 0.112278 0.823861 
-48.295 4.17757 -72.0926 67 78 66 0.369402 0.750195 0.548407 
