ply
format ascii 1.0
comment Created by CloudCompare v2.11 alpha (Anoia)
comment Created 15/10/2019 14:54
obj_info Generated by CloudCompare!
element vertex 740
property float x
property float y
property float z
property uchar red
property uchar green
property uchar blue
property float nx
property float ny
property float nz
end_header
-43.9914 -6.32408 -73.26 101 93 106 0.570043 0.35242 0.742193 
-46.2325 -7.19553 -72.3614 60 56 67 0.568187 0.00958387 0.822844 
-45.437 -5.06673 -72.928 124 121 122 0.6479 -0.00971156 0.761664 
-45.3523 -4.20324 -73.0682 69 66 74 0.522052 0.162119 0.837365 
-46.2673 -1.9843 -72.9768 78 75 84 0.654266 -0.0323615 0.755572 
-46.9231 -6.75291 -72.2191 99 92 105 0.5348 0.152588 0.831087 
-44.3971 -5.74995 -73.4198 75 70 81 0.334738 0.239099 0.911473 
-45.7441 -4.29489 -72.9378 74 70 78 0.33646 0.153691 0.929071 
-44.0595 -6.05776 -73.466 104 95 109 0.59164 0.177948 0.786318 
-45.8485 -2.84088 -73.0525 79 73 86 0.63938 0.139256 0.756175 
-45.5815 -5.17324 -72.9485 112 110 110 0.646802 -0.00413733 0.762647 
-46.7652 -2.69334 -72.3041 66 76 69 0.633471 0.0265694 0.77331 
-45.743 -5.74142 -72.3371 91 110 87 0.413095 0.0385202 0.909873 
-46.7873 -2.13187 -72.5703 39 42 43 0.638758 0.155537 0.753523 
-44.0773 -5.73068 -73.4321 69 63 76 0.505392 0.142096 0.85111 
-47.3982 -2.13083 -71.7552 76 91 78 -0.028534 0.870967 0.490513 
-46.0884 -2.59049 -72.8723 63 60 71 0.603724 0.177924 0.777085 
-47.2739 -4.36945 -72.2704 82 76 88 0.545191 0.0518562 0.836707 
-46.7671 -6.68958 -72.2954 86 80 91 0.536335 0.117732 0.835753 
-45.3762 -5.92572 -72.0549 82 103 78 0.471424 0.701305 0.534725 
-46.8403 -7.25116 -72.1472 97 90 103 0.71121 0.175891 0.68062 
-44.1031 -5.84947 -73.4108 84 75 89 0.571146 0.302371 0.763128 
-46.5236 -1.13148 -72.9582 93 91 98 0.414429 0.14384 0.898642 
-45.7151 -6.90223 -72.5841 66 64 71 0.684846 -0.179255 0.706296 
-47.8325 -3.15202 -72.2038 108 105 110 0.609608 0.161856 0.776003 
-46.6338 -6.79781 -72.2394 56 53 64 0.448755 0.220625 0.865993 
-46.7017 -7.18958 -72.2142 75 68 82 0.606978 0.256981 0.752023 
-46.163 -4.89522 -72.6125 105 103 104 0.423212 0.0224131 0.905753 
-46.5583 -3.43336 -72.6508 73 67 79 0.529746 0.492981 0.690173 
-44.7473 -4.25102 -73.3609 88 82 91 0.392328 0.252104 0.884603 
-44.3711 -6.28296 -73.358 114 108 119 0.40913 0.0549978 0.910817 
-46.7001 -6.85747 -72.2908 94 88 100 0.579734 0.252946 0.774549 
-47.4482 -3.48516 -72.2027 107 101 109 0.522655 0.266788 0.809726 
-45.21 -4.10473 -73.1146 59 54 62 0.286532 0.0135272 0.957975 
-46.8714 -6.93291 -72.2406 100 93 106 0.622249 0.145441 0.76919 
-47.7082 -3.48732 -72.216 96 93 98 0.549848 0.196483 0.811826 
-43.918 -6.61886 -73.38 102 94 106 0.452018 0.223756 0.863489 
-44.1378 -4.82847 -73.5194 91 86 97 0.575396 0.115665 0.809655 
-47.4851 -3.27403 -72.191 58 54 65 0.633875 0.206126 0.745462 
-44.3888 -5.70004 -73.2553 94 86 100 0.524625 0.467999 0.711158 
-44.4517 -3.73481 -73.4676 58 52 62 0.475495 0.112805 0.872456 
-46.6753 -5.62649 -71.7447 79 75 85 0.438814 0.305464 0.845065 
-46.6986 -2.28901 -72.5486 27 31 32 0.657695 0.169383 0.733994 
-45.5625 -6.75513 -72.7068 81 80 86 0.590543 0.145019 0.793869 
-44.4702 -5.26879 -73.3365 96 90 101 0.588068 0.151132 0.794566 
-47.0398 -2.08326 -71.9259 130 157 121 0.437031 0.414454 0.798268 
-43.9315 -6.2023 -73.4969 113 106 118 0.374272 0.409015 0.832242 
-44.8508 -5.81509 -73.1742 66 62 73 0.6118 0.158615 0.774947 
-45.115 -3.45662 -73.3234 83 78 89 0.544097 0.102469 0.832742 
-45.5073 -1.06141 -73.3463 93 88 98 0.416953 0.140882 0.897943 
-46.6524 -7.29475 -72.2261 69 63 76 0.587834 0.0852143 0.804481 
-45.109 -4.03256 -73.2026 110 105 114 0.547156 0.0517769 0.835428 
-44.3291 -5.47302 -73.3619 87 82 94 0.466172 0.118325 0.876746 
-46.2513 -2.36346 -73.0828 144 140 150 0.504403 0.432111 0.747568 
-47.0452 -1.62737 -72.6566 94 91 95 0.61149 0.139043 0.77894 
-47.1281 -4.52811 -72.3445 54 47 59 0.553217 0.0431983 0.831916 
-47.333 -1.45508 -72.4759 94 90 97 0.468351 0.121743 0.875115 
-47.1759 -1.56005 -72.5702 108 105 109 0.646374 0.158944 0.746282 
-44.9506 -2.47816 -73.4497 102 94 107 0.340305 0.692007 0.636647 
-48.1121 -2.00038 -72.0527 97 91 104 0.570233 0.163998 0.804946 
-47.4908 -2.24741 -71.9858 115 131 116 -0.22432 0.929728 0.292039 
-46.5619 -2.32358 -72.7292 45 45 51 0.565546 0.153697 0.810268 
-44.6296 -4.04376 -73.4386 84 79 89 0.541714 0.159679 0.825256 
-45.0589 -2.32362 -73.4595 107 99 113 0.493088 0.343087 0.799472 
-44.3507 -6.12367 -73.3691 81 77 88 0.340128 0.328035 0.881309 
-47.0542 -1.98463 -72.5748 31 37 30 0.622685 0.0765714 0.778717 
-47.6313 -3.27896 -72.1916 69 63 75 0.533353 0.253459 0.807027 
-44.902 -3.65969 -73.2997 62 57 67 0.523035 0.0960091 0.846887 
-45.5849 -3.37432 -73.1761 59 53 63 0.412875 0.0864157 0.906679 
-47.2677 -2.59472 -71.7633 119 141 115 0.942269 -0.196707 0.270988 
-44.6673 -3.32307 -73.4431 90 83 97 0.550651 0.343955 0.760577 
-44.7523 -3.53298 -73.3845 116 109 122 0.602543 0.132411 0.787026 
-47.4089 -1.90919 -72.403 95 103 94 0.545817 0.315325 0.776308 
-46.4238 -3.96881 -72.7329 96 88 99 0.581545 0.138321 0.801669 
-45.6563 -4.09119 -73.0185 93 87 96 0.312856 0.192203 0.93015 
-47.034 -1.47646 -72.8303 105 100 106 0.607725 0.132243 0.783059 
-46.7056 -2.28968 -72.5552 27 30 33 0.666675 0.162493 0.72742 
-46.9849 -4.39755 -72.3774 92 84 98 0.540898 0.250964 0.802774 
-43.6036 -6.46782 -73.5948 105 99 111 0.565591 0.143996 0.812017 
-44.9839 -5.39828 -73.064 122 118 125 0.594195 0.317226 0.739121 
-46.5961 -2.49835 -72.7621 42 42 50 0.615952 0.16496 0.770319 
-47.1476 -1.31581 -72.6439 72 71 75 0.54497 0.0872523 0.833904 
-46.8866 -1.80969 -72.7136 95 96 98 0.514724 0.455141 0.726571 
-45.9662 -5.5165 -72.6258 112 112 108 0.521387 0.471413 0.711284 
-47.0904 -2.64061 -71.4024 117 118 116 0.3286 0.607019 0.723567 
-47.5943 -2.69277 -71.9847 107 120 106 0.304812 0.637041 0.708003 
-45.587 -3.6113 -73.133 86 80 92 0.593929 0.174685 0.785323 
-45.3578 -5.06974 -73.0009 120 119 120 0.426039 -0.0639739 0.90244 
-46.2639 -4.76672 -72.5793 90 86 90 0.503287 0.322294 0.801766 
-45.966 -4.08953 -72.8749 76 70 79 0.585071 0.0580821 0.8089 
-46.9762 -4.10822 -72.4134 89 83 95 0.497427 0.00670386 0.86748 
-44.0717 -5.61167 -73.4251 68 62 74 0.483986 0.212592 0.84886 
-45.9484 -2.15048 -73.1393 103 99 109 0.689491 0.0892971 0.718769 
-47.0895 -5.73124 -72.1303 88 83 94 0.460108 0.0999011 0.882225 
-45.3524 -5.98161 -72.7875 31 34 38 0.536493 0.105563 0.837276 
-46.3566 -6.01169 -71.9678 83 85 84 0.318884 0.678236 0.662049 
-46.461 -3.48842 -72.7518 51 44 55 0.585824 0.217945 0.780583 
-47.0711 -5.48568 -72.2331 71 67 77 0.477853 0.109835 0.871546 
-46.5252 -5.81479 -72.0605 88 89 90 0.101928 0.895011 0.434241 
-46.7935 -5.74532 -72.1448 86 79 90 0.17148 0.836525 0.520405 
-46.1345 -4.95972 -72.5517 77 76 78 0.62561 0.0947894 0.774356 
-46.0208 -6.0365 -71.7186 113 121 113 0.216932 0.798493 0.56156 
-47.1579 -5.20702 -72.3392 69 61 75 0.568504 0.183437 0.801969 
-46.5241 -5.19473 -72.4807 74 67 77 0.581606 0.1578 0.798018 
-46.5942 -3.82479 -72.6293 90 83 95 0.585546 0.125369 0.800886 
-45.5018 -5.64185 -72.3978 39 46 37 0.740351 0.107876 0.663508 
-44.669 -5.73035 -73.2083 92 87 98 0.578717 0.115743 0.807273 
-47.9222 -2.2313 -71.7247 96 93 102 0.113776 0.755056 0.645713 
-44.045 -5.55653 -73.4439 84 75 88 0.604199 0.0582874 0.794699 
-44.7838 -5.81298 -73.1796 89 82 94 0.642082 0.275633 0.715372 
-46.0439 -1.60971 -73.1222 89 86 96 0.517957 0.174643 0.837389 
-47.8042 -2.81774 -72.0231 102 105 104 0.230653 0.720201 0.654301 
-44.7735 -3.78127 -73.333 71 66 77 0.737376 0.212675 0.641129 
-44.2823 -5.41571 -73.4269 87 79 93 0.624613 0.139302 0.768409 
-46.8002 -2.75407 -72.0937 101 112 99 0.537959 0.675381 0.504441 
-45.0953 -6.06599 -72.8013 35 34 41 0.558704 0.461973 0.68879 
-46.1587 -4.22405 -72.7794 110 104 113 0.607981 -0.0524366 0.792218 
-45.6862 -6.27532 -71.7156 113 133 109 0.47545 0.0506964 0.878281 
-47.2007 -3.1775 -72.3737 87 85 93 0.67777 0.196075 0.708648 
-45.9388 -6.06201 -71.6218 106 113 106 0.0840285 0.902273 0.422898 
-46.6257 -3.71902 -72.6707 86 79 90 0.601823 0.168268 0.780702 
-46.0208 -6.70797 -71.7382 87 86 92 0.476597 0.0508187 0.877652 
-45.9512 -4.15111 -72.7794 74 68 77 0.62039 0.16837 0.766008 
-48.0458 -2.55165 -72.1839 62 63 72 0.598808 0.0884438 0.795994 
-44.5909 -4.08801 -73.4218 80 76 86 0.544928 0.169633 0.821145 
-45.8918 -3.22827 -73.0198 63 56 67 0.414098 0.134264 0.900275 
-45.5984 -6.62349 -71.4507 94 92 95 0.0687267 0.915009 0.397537 
-46.6072 -6.41977 -71.7454 86 81 90 0.302264 0.43557 0.847889 
-46.4732 -1.69586 -73.0534 110 105 114 0.391226 0.628933 0.671852 
-45.6304 -5.24354 -72.9573 118 116 116 0.541998 0.354321 0.762033 
-46.871 -1.52932 -72.9229 120 116 122 0.466284 0.516065 0.718509 
-46.3993 -2.7824 -72.7971 61 58 68 0.570494 -0.0462563 0.819998 
-46.6016 -2.52681 -72.6208 35 37 43 0.634437 0.0323549 0.772297 
-48.1319 -2.26134 -72.094 74 69 81 0.575716 0.154023 0.803012 
-46.6022 -2.42718 -72.6992 39 40 47 0.624449 -0.0764337 0.777317 
-45.9985 -6.00278 -71.6622 86 100 85 0.452366 -0.161455 0.877096 
-46.8849 -6.49009 -72.1989 79 75 86 0.454707 0.142908 0.879101 
-46.1959 -6.30854 -71.7467 81 80 83 0.369505 0.642118 0.671678 
-45.7514 -5.2668 -72.8857 105 103 104 0.522784 0.433729 0.733877 
-47.7867 -3.17327 -72.1781 87 82 93 0.567742 0.177136 0.803923 
-47.9042 -2.27487 -72.0621 89 93 94 0.405957 0.0522518 0.912397 
-47.6849 -2.9425 -72.2121 38 39 45 0.623947 0.233003 0.745922 
-46.3862 -2.52298 -72.8246 42 40 49 0.637335 0.142463 0.757304 
-45.583 -2.91687 -73.1002 94 87 98 0.502038 0.135332 0.854192 
-46.7032 -4.32018 -72.4661 73 66 77 0.46077 0.112002 0.880424 
-46.2305 -1.81406 -73.0428 71 68 76 0.580088 0.116018 0.806249 
-45.5896 -6.61993 -72.4569 92 109 90 0.401369 0.449727 0.797903 
-46.2813 -3.90184 -72.7933 94 86 97 0.583384 0.128492 0.801968 
-46.2349 -4.02331 -72.8066 67 61 71 0.582589 0.131935 0.801987 
-45.6598 -3.43545 -73.0983 106 101 112 0.404966 0.0521244 0.912845 
-47.3776 -4.10461 -72.2393 85 77 90 0.560121 0.0726874 0.825216 
-46.7471 -3.896 -72.5849 92 84 97 0.595217 0.0670868 0.80076 
-48.2476 -1.71159 -72.1021 102 98 110 0.62637 0.126464 0.7692 
-44.923 -5.59874 -73.1132 77 73 81 0.694504 -0.00693117 0.719456 
-46.4205 -1.60831 -72.938 91 89 95 0.526238 0.0989385 0.844562 
-44.917 -3.81757 -73.2818 81 77 87 0.513583 0.129487 0.848213 
-45.6466 -1.21254 -73.2678 91 85 96 0.491682 0.285644 0.822591 
-45.3323 -3.94037 -73.1274 95 89 98 0.522463 0.178146 0.833844 
-45.6719 -3.01134 -73.0879 104 96 109 0.431403 0.497016 0.752905 
-45.5325 -1.37991 -73.3497 124 119 129 0.471762 0.121884 0.873261 
-47.348 -2.45811 -71.5396 153 159 151 -0.0820399 0.949319 0.303418 
-46.3655 -4.85812 -72.4847 83 79 85 0.47438 -0.0394184 0.879437 
-45.1737 -3.2922 -73.2432 108 101 112 0.439114 0.093399 0.893563 
-44.8329 -2.20036 -73.4637 109 101 115 0.431069 0.280732 0.857536 
-46.5932 -4.98603 -72.4334 71 66 74 0.552657 0.078543 0.829699 
-44.4624 -4.21449 -73.4575 116 110 120 0.516803 0.201568 0.832037 
-45.5895 -6.386 -71.8361 98 125 93 0.187327 0.840722 0.50803 
-47.3099 -5.2186 -72.2544 93 85 97 0.6697 0.107921 0.734748 
-46.4475 -4.93937 -72.5146 79 76 82 0.479764 0.0622172 0.875189 
-45.1652 -4.47751 -73.2023 102 97 103 0.42419 0.408183 0.808362 
-45.6649 -5.04094 -72.9629 123 120 121 0.624329 0.1043 0.774168 
-45.9715 -3.25954 -73.0391 48 43 54 0.561293 0.128169 0.817632 
-46.9274 -2.14025 -71.9387 134 164 125 0.458591 0.314596 0.831098 
-47.6846 -3.9003 -72.0482 74 67 79 0.478583 0.205535 0.853647 
-46.739 -3.27982 -72.3129 93 87 96 0.715802 0.219887 0.66278 
-46.9117 -3.4682 -72.3736 80 74 83 0.746282 0.158944 0.646374 
-46.9204 -3.99221 -72.4563 85 78 91 0.730127 -0.223572 0.645701 
-47.224 -5.32934 -72.2492 97 90 103 0.539683 0.108515 0.834845 
-48.0381 -1.55201 -72.2091 114 111 121 0.594241 0.110045 0.796723 
-46.4447 -4.93899 -72.5123 84 79 85 0.513889 0.0746195 0.854605 
-46.6769 -5.25537 -72.3996 78 71 82 0.582359 0.134846 0.80167 
-46.3417 -5.10868 -72.4731 83 81 86 0.489555 -0.1351 0.861443 
-47.3951 -3.82597 -72.2906 87 82 91 0.545477 0.268808 0.79385 
-45.4328 -0.867708 -73.4217 86 82 93 0.526238 0.0989385 0.844562 
-45.2479 -5.02706 -73.1441 84 83 85 0.608473 0.158535 0.777578 
-44.6456 -3.06862 -73.4788 79 73 85 0.469723 0.162427 0.867743 
-45.7956 -6.09403 -71.6983 117 132 114 0.278165 0.758199 0.58971 
-48.1072 -2.03345 -72.0406 108 105 114 0.535108 0.133411 0.834183 
-45.3829 -1.51058 -73.4039 75 69 80 0.561092 0.109304 0.820505 
-47.3586 -5.06324 -72.0599 69 63 76 0.518269 0.129932 0.84529 
-45.6298 -6.21101 -71.8136 122 142 118 0.436704 0.566221 0.699059 
-45.8448 -6.27602 -71.5826 92 98 92 0.42308 0.588994 0.688542 
-46.3185 -5.01946 -72.5029 92 89 93 0.456781 -0.164908 0.87416 
-46.0273 -6.39458 -71.5854 77 76 80 0.423215 0.592501 0.685442 
-46.7657 -5.37761 -72.3642 70 66 73 0.406371 0.0834634 0.909888 
-45.6892 -6.72845 -72.6674 83 80 87 0.561318 0.137738 0.816058 
-45.6687 -3.86421 -73.0539 72 68 78 0.478734 0.115754 0.870296 
-46.8278 -3.95235 -72.5745 78 70 82 0.446098 0.426632 0.786754 
-46.0736 -4.47667 -72.7478 62 58 63 0.574827 0.15759 0.802957 
-45.4964 -7.00195 -72.6556 105 102 109 0.572592 0.150997 0.805815 
-45.4296 -6.15008 -71.8179 111 131 107 0.55473 0.406583 0.725923 
-47.7266 -3.10321 -71.7196 68 63 74 0.573776 0.200439 0.794106 
-46.0974 -5.1992 -72.5432 91 86 91 0.590187 0.138255 0.79534 
-45.5142 -2.47849 -73.2771 69 62 74 0.650613 -0.061758 0.756894 
-46.4253 -5.89392 -71.7972 88 85 91 0.187321 0.871705 0.452815 
-44.6944 -4.99173 -73.3864 109 104 113 0.597553 0.218844 0.771387 
-45.7164 -6.66158 -71.3423 84 79 88 0.0687267 0.915009 0.397537 
-43.9717 -6.13423 -73.5044 100 94 106 0.343064 0.370756 0.863045 
-45.0898 -1.03169 -73.5212 111 104 116 0.63252 0.175277 0.754451 
-45.3076 -6.55383 -72.7258 40 40 48 0.612937 0.161936 0.77336 
-47.4659 -3.02532 -72.279 88 88 97 0.533188 0.239548 0.811373 
-45.3372 -7.07838 -72.1639 83 82 84 0.504147 0.457865 0.732253 
-45.3606 -6.36319 -71.9267 112 130 109 0.476597 0.0508187 0.877652 
-46.1795 -5.79281 -71.8062 90 97 89 0.224733 0.827079 0.515204 
-47.4677 -4.1516 -72.2774 66 60 73 0.479382 0.360739 0.800038 
-46.9917 -2.68204 -71.5166 135 137 132 0.458842 0.347704 0.817659 
-45.5723 -5.57541 -72.8458 105 103 104 0.541916 0.18567 0.819667 
-44.2231 -5.03197 -73.4371 88 80 92 0.59795 0.19116 0.778405 
-44.3634 -5.09496 -73.3772 81 73 85 0.610658 0.155303 0.776516 
-46.6062 -5.78085 -71.83 85 80 88 0.149148 0.840251 0.52128 
-44.0497 -5.13525 -73.5333 86 78 92 0.607401 0.165104 0.777049 
-44.6628 -4.59217 -73.4124 86 82 91 0.543587 0.169216 0.822119 
-46.272 -7.1826 -72.362 70 68 78 0.599793 0.037926 0.799256 
-43.7351 -5.8534 -73.4338 93 85 97 0.509945 0.13881 0.848934 
-45.39 -6.77084 -72.2866 99 105 98 0.409577 0.638409 0.651675 
-45.7677 -1.20032 -73.242 93 88 98 0.427155 0.107839 0.897725 
-44.2512 -6.32588 -73.2941 89 82 93 0.471762 0.121884 0.873261 
-45.1956 -5.47306 -72.9882 100 101 104 0.42473 -0.411908 0.806186 
-45.7067 -3.42604 -73.0695 79 73 83 0.445689 0.096403 0.889982 
-45.9142 -3.96594 -72.9342 58 53 61 0.560448 0.0347672 0.82746 
-45.811 -5.13684 -72.8445 136 133 132 0.607334 0.155224 0.779135 
-46.4548 -3.249 -72.8118 80 74 86 0.666684 0.251788 0.701523 
-46.9954 -1.57028 -72.6816 55 55 57 0.634031 0.0736574 0.769792 
-47.9276 -2.39658 -71.8276 78 79 85 0.446167 -0.0474646 0.89369 
-46.3434 -3.33251 -72.692 67 60 71 0.570326 0.200302 0.796622 
-45.2647 -0.834629 -73.5402 81 73 87 0.543819 0.240148 0.804108 
-45.928 -4.00535 -72.9534 61 56 66 0.545455 -0.0150376 0.838005 
-46.6882 -3.10495 -72.2819 87 83 90 0.646738 0.199115 0.736263 
-45.4457 -5.33171 -73.0323 99 93 97 0.424612 0.607777 0.671053 
-47.871 -2.60627 -72.1093 75 77 84 0.498806 0.132336 0.856551 
-45.5139 -3.25421 -73.1647 107 100 111 0.347721 0.0616713 0.935567 
-45.7679 -3.6397 -73.0685 47 41 52 0.489688 -0.0510379 0.870403 
-44.7623 -4.45223 -73.5611 115 108 119 0.601134 0.132101 0.788154 
-46.2126 -1.4405 -73.0341 85 82 90 0.475818 0.134502 0.869199 
-45.837 -4.37561 -72.9659 47 42 48 0.599246 0.154692 0.785477 
-44.6737 -5.34268 -73.4616 97 90 101 0.444771 0.581367 0.681316 
-45.0417 -3.36955 -73.3475 88 81 94 0.582359 0.134846 0.80167 
-46.7163 -6.15954 -72.3018 79 78 86 0.485237 0.125269 0.865363 
-46.7965 -2.68643 -72.3705 47 55 54 0.634 -0.233249 0.737319 
-44.7674 -5.94979 -73.1869 93 89 100 0.628223 0.0856009 0.77331 
-46.4005 -5.90931 -72.0605 99 105 99 0.086201 0.685225 0.723212 
-46.3439 -6.93498 -71.8372 95 90 102 0.0858788 0.871459 0.482892 
-47.7637 -2.0546 -72.1878 68 67 75 0.559241 0.193525 0.8061 
-47.0162 -3.37237 -72.4439 81 77 88 0.676 0.186323 0.712957 
-44.1035 -6.20793 -73.349 89 82 94 0.484837 0.422804 0.765618 
-45.8826 -3.69936 -73.0119 81 74 85 0.576982 0.234836 0.782269 
-45.4695 -1.21031 -73.5801 87 80 92 0.521967 0.211526 0.826321 
-44.2308 -6.23754 -73.4328 101 95 106 0.61043 0.168133 0.774019 
-45.5967 -6.33459 -72.6656 32 33 37 0.476897 0.159944 0.864284 
-44.6231 -4.87441 -73.3197 127 122 131 0.578883 0.225035 0.783743 
-45.8973 -3.04915 -72.7638 89 81 93 0.551236 0.268551 0.789949 
-45.477 -5.12463 -72.9193 91 88 89 0.216269 0.808325 0.547575 
-47.7532 -1.69188 -72.331 69 69 75 0.603751 0.167961 0.779278 
-47.4719 -4.32856 -72.1968 51 45 58 0.559898 0.207086 0.802265 
-46.4417 -4.89354 -72.4145 62 58 66 0.588818 0.194233 0.784581 
-46.6004 -2.91054 -72.7334 96 93 103 0.746199 0.058722 0.663128 
-46.6929 -6.19408 -71.977 94 88 99 0.122652 0.858563 0.497822 
-44.2279 -5.815 -73.5549 84 75 89 0.622518 0.142504 0.769522 
-43.9722 -6.34955 -73.44 91 85 95 0.350853 0.375582 0.857811 
-46.9441 -1.51825 -72.7513 107 105 109 0.582741 0.207573 0.785701 
-44.0042 -6.44104 -73.387 89 81 94 0.519748 0.211862 0.827633 
-45.8817 -4.10876 -72.8778 88 84 93 0.576329 0.0376777 0.816349 
-45.953 -4.8106 -72.6736 83 82 83 0.456438 -0.152146 0.876651 
-44.9887 -3.49772 -73.4311 89 82 94 0.550651 0.343955 0.760577 
-45.4484 -1.54618 -73.62 89 82 94 0.503323 0.255533 0.82545 
-45.9615 -3.83874 -72.9664 76 70 80 0.432431 0.0931603 0.896842 
-45.7923 -3.43121 -72.828 82 75 87 0.570818 0.24553 0.783506 
-45.4351 -1.65811 -73.3312 91 85 97 0.519315 0.126556 0.84516 
-44.6132 -6.04945 -73.5221 102 94 107 0.633707 0.15578 0.757726 
-45.5843 -6.51271 -72.7738 31 30 38 0.579095 0.154126 0.800558 
-45.4375 -6.2571 -72.685 33 39 39 0.50784 0.210716 0.835283 
-45.1743 -3.22941 -73.4178 80 72 85 0.550651 0.343955 0.760577 
-46.8938 -3.74244 -72.5073 74 68 79 0.694117 0.179275 0.697182 
-46.3097 -5.57292 -72.3174 79 75 82 0.589395 0.141753 0.795311 
-44.5397 -3.96866 -73.4487 72 67 78 0.336581 0.424249 0.84067 
-46.8798 -6.98688 -72.0424 109 102 115 0.602303 0.135332 0.786712 
-46.486 -6.9976 -71.8745 73 67 79 0.458859 0.515181 0.723904 
-44.9114 -4.10913 -73.2987 74 69 79 0.634296 0.222861 0.740272 
-47.4611 -4.69209 -72.0859 60 54 67 0.500163 0.119635 0.857627 
-46.7088 -7.38807 -71.9836 88 81 95 0.218438 0.769956 0.599543 
-46.8883 -5.86079 -72.2211 70 67 77 0.456874 0.0969979 0.884227 
-45.6686 -5.86953 -71.9249 97 125 91 0.106817 0.908641 0.403686 
-46.1649 -6.64946 -72.5676 30 30 36 0.579334 0.16101 0.799029 
-44.9995 -3.80372 -73.2431 71 66 76 0.617967 -0.21948 0.754947 
-46.3627 -2.1564 -72.9028 40 40 48 0.630222 0.145899 0.762584 
-45.4837 -3.37387 -73.1103 76 71 82 0.418051 0.0924404 0.903708 
-44.682 -6.40135 -73.0218 59 56 66 0.539757 0.395384 0.743191 
-43.8963 -6.35951 -73.4667 99 93 103 0.372354 0.165648 0.913188 
-47.0562 -1.9043 -72.3379 109 126 105 0.247065 0.62789 0.738047 
-46.1983 -2.53644 -72.9509 62 58 68 0.502127 0.462355 0.730819 
-46.9456 -5.92907 -72.1861 69 65 75 0.482732 0.0948477 0.870617 
-47.4008 -1.69511 -72.4813 101 107 100 0.455705 -0.124283 0.881411 
-46.2503 -2.65244 -72.9421 70 67 78 0.631744 0.135907 0.76317 
-46.3902 -2.0299 -72.8693 53 53 60 0.61192 0.12594 0.780828 
-46.5202 -6.16159 -71.8686 83 79 87 0.522996 0.114451 0.844616 
-46.0847 -2.59232 -73.0488 80 76 87 0.628778 0.145564 0.763838 
-46.172 -2.79971 -72.9694 59 54 65 0.641624 0.0920782 0.761472 
-44.8072 -3.54412 -73.3737 97 90 101 0.46799 0.153081 0.870374 
-45.9349 -1.22321 -73.1457 78 75 84 0.518507 0.111212 0.84781 
-46.0396 -1.4633 -73.0939 77 74 84 0.486351 0.196037 0.851488 
-47.7643 -2.74595 -72.1421 98 101 107 0.675341 0.0238686 0.737119 
-46.0339 -2.25864 -73.1036 78 74 85 0.664859 -0.0295181 0.746385 
-46.7482 -7.0926 -72.2415 95 90 102 0.528504 0.130296 0.838872 
-47.5207 -1.89423 -72.0594 74 80 78 0.240741 0.63411 0.734812 
-44.0674 -4.78019 -73.5505 86 79 90 0.475005 0.12485 0.871081 
-46.1166 -2.30694 -73.0575 120 117 128 0.656801 0.00972009 0.754002 
-45.6254 -3.67709 -73.0698 91 85 96 0.439664 0.0473484 0.896914 
-46.2072 -2.10819 -72.9795 91 89 99 0.656801 0.00972009 0.754002 
-45.0066 -6.60896 -72.9515 38 36 46 0.589469 0.151492 0.793458 
-47.8033 -2.65957 -72.2045 112 115 122 0.492684 -0.512725 0.703118 
-44.3886 -5.62604 -73.3291 82 77 89 0.433506 0.205657 0.87737 
-45.9653 -2.09521 -73.0764 104 100 111 0.648248 0.0323421 0.760742 
-44.7592 -5.16558 -73.2256 117 113 120 0.630659 0.233172 0.740203 
-46.2357 -2.35146 -72.9472 88 86 96 0.680286 0.00415653 0.732935 
-45.5043 -6.23254 -71.7564 90 114 86 0.47545 0.0506964 0.878281 
-45.8348 -2.93739 -73.0359 93 87 99 0.468561 0.0764713 0.880115 
-46.1503 -2.14569 -73.0283 125 122 133 0.672986 0.0097132 0.739591 
-46.7055 -6.87554 -72.272 78 75 86 0.434402 0.182829 0.881968 
-45.6751 -6.93466 -72.6687 76 74 81 0.314795 0.201864 0.927445 
-46.9437 -5.97963 -72.2688 60 55 64 0.391289 0.276471 0.877757 
-46.3373 -2.94997 -72.8948 100 95 107 0.603716 0.15808 0.781369 
-47.0074 -6.0798 -72.1622 83 78 90 0.500582 0.148266 0.852898 
-46.1972 -1.36466 -73.0346 72 69 78 0.496581 0.203764 0.843734 
-44.7427 -5.36102 -73.3336 105 101 110 0.648905 0.185621 0.73788 
-46.0678 -5.66346 -72.6573 93 96 90 0.582983 0.270163 0.766252 
-47.0146 -3.0558 -72.4248 66 65 73 0.58622 -0.559189 0.58622 
-46.2511 -1.20293 -73.0235 128 125 133 0.489786 0.180134 0.853031 
-47.6578 -1.50379 -72.3222 64 62 70 0.562168 0.0462632 0.825728 
-45.9053 -2.57647 -73.1056 87 82 94 0.639484 0.182491 0.746831 
-46.0127 -2.78661 -73.0461 100 95 106 0.631126 0.139417 0.763048 
-46.5395 -2.85564 -72.8072 82 79 89 0.605786 0.194772 0.771419 
-46.164 -3.36697 -72.9284 56 50 62 0.643467 0.199058 0.739139 
-46.2118 -3.57072 -72.8115 36 31 41 0.632996 0.229754 0.739276 
-46.3798 -3.2573 -72.8464 78 72 84 0.616947 0.198469 0.761568 
-46.8549 -6.92 -72.2147 90 84 96 0.438907 0.170605 0.882188 
-46.2868 -3.19218 -72.8992 62 56 68 0.609272 0.184767 0.771134 
-46.337 -3.38833 -72.7893 91 85 97 0.618504 0.188774 0.76277 
-46.0148 -1.93002 -73.0501 126 122 132 0.593962 0.154881 0.789443 
-47.3176 -5.17598 -72.135 72 66 78 0.529409 0.0809017 0.8445 
-46.4993 -2.11417 -72.8319 36 36 44 0.604802 0.0672003 0.793535 
-47.2414 -4.94945 -72.1783 94 86 99 0.500163 0.119635 0.857627 
-45.6363 -4.92936 -72.7346 105 102 103 0.547663 0.282512 0.787561 
-46.4346 -1.9039 -72.9323 58 57 65 0.600662 0.155058 0.784323 
-46.8218 -2.39777 -72.2223 66 87 62 0.57802 0.177502 0.796484 
-46.54 -7.09687 -72.2633 72 68 80 0.443141 0.240476 0.863596 
-47.7812 -3.38223 -72.0531 72 66 79 0.571165 0.131353 0.810257 
-46.5519 -5.68251 -72.1601 90 90 92 0.0929426 0.521909 0.847923 
-46.8215 -5.63679 -72.2974 75 73 80 0.450831 0.13024 0.883057 
-44.5966 -3.45672 -73.6153 66 61 72 0.75017 0.162158 0.641054 
-47.9209 -2.70915 -72.1587 46 46 55 0.492684 -0.512725 0.703118 
-45.0325 -6.17777 -72.9602 58 56 66 0.606294 0.171707 0.776482 
-44.8758 -6.55072 -73.0502 87 84 94 0.564979 0.356572 0.74408 
-44.8432 -4.30291 -73.2795 133 128 136 0.373157 0.243363 0.895281 
-45.5457 -3.22969 -73.1194 92 87 98 0.407429 0.14622 0.901455 
-45.5488 -2.59698 -73.2527 95 90 102 0.597101 0.0762563 0.798533 
-46.7538 -5.86476 -72.04 85 82 87 0.570343 0.144447 0.808606 
-45.6311 -2.8054 -73.1708 85 79 91 0.505833 0.0454836 0.861432 
-45.3843 -2.59061 -73.2957 63 57 69 0.591323 0.0973431 0.800538 
-46.5288 -1.7124 -72.8764 84 82 88 0.52043 0.136338 0.84295 
-45.4628 -2.7872 -73.2255 66 60 72 0.58718 0.103449 0.802819 
-45.1235 -5.32344 -72.9123 139 137 138 0.558262 0.384726 0.735072 
-45.6318 -7.09331 -72.1946 73 70 76 0.287217 0.0413893 0.956971 
-45.3021 -2.69746 -73.3008 43 37 50 0.52022 0.139214 0.84261 
-46.7648 -2.93387 -72.1164 44 44 49 0.631931 0.381139 0.67483 
-46.7748 -6.85052 -72.1766 82 78 91 0.442341 0.199719 0.874326 
-46.3756 -5.89635 -72.36 116 129 114 0.484478 0.112902 0.867487 
-46.3823 -7.24925 -71.8385 74 68 79 0.195575 -0.319392 0.927221 
-44.7474 -5.68909 -73.1573 96 91 101 0.562779 0.286938 0.775208 
-45.1124 -2.59007 -73.3525 112 106 118 0.504629 0.122904 0.854543 
-46.0968 -5.10648 -72.6389 80 80 80 0.456438 -0.152146 0.876651 
-45.4767 -4.13145 -73.1036 81 77 86 0.47299 0.0039747 0.881059 
-45.2219 -2.82322 -73.3013 74 68 81 0.52022 0.139214 0.84261 
-47.9261 -2.61831 -72.1057 43 44 53 0.490033 -0.60791 0.62475 
-45.3307 -4.27533 -73.1321 78 74 83 0.607047 0.158164 0.778767 
-47.3465 -1.6319 -72.5083 104 106 106 0.630686 0.175615 0.755907 
-45.4184 -2.90735 -73.2245 68 62 75 0.508532 0.151822 0.847553 
-44.8818 -2.47105 -73.3909 101 95 107 0.50819 0.113731 0.853702 
-44.5518 -5.61197 -73.2893 102 97 108 0.585116 0.260227 0.768063 
-45.0755 -6.55071 -72.9042 38 36 46 0.584707 0.160832 0.795142 
-47.1568 -3.81534 -72.2805 80 73 86 0.646427 0.120369 0.753421 
-45.0188 -2.65982 -73.3947 109 103 115 0.502288 0.125934 0.855481 
-45.2812 -2.8943 -73.3133 75 69 81 0.606349 0.0945148 0.789562 
-45.211 -2.99768 -73.3039 72 66 78 0.52449 0.152176 0.837707 
-45.0935 -2.55074 -73.3919 109 103 115 0.48388 0.131442 0.865207 
-45.1538 -2.35221 -73.4174 88 82 94 0.518403 0.104829 0.848687 
-44.9569 -2.81275 -73.3902 65 59 71 0.609092 0.0853597 0.788492 
-45.5523 -2.96531 -73.1333 91 86 98 0.511987 0.151973 0.845443 
-45.303 -2.42116 -73.3148 81 75 87 0.485237 0.125269 0.865363 
-44.8099 -2.53608 -73.4942 95 88 100 0.504629 0.122904 0.854543 
-45.0642 -3.00554 -73.3565 72 67 79 0.606513 0.0916314 0.789776 
-44.9052 -2.74594 -73.4264 74 68 80 0.461773 0.115088 0.8795 
-44.8588 -2.71671 -73.4295 56 50 62 0.60734 0.110292 0.786749 
-47.6239 -1.84663 -72.2728 61 67 64 0.588375 0.106579 0.801533 
-45.3912 -3.07911 -73.2621 87 81 93 0.510938 0.148717 0.846655 
-45.833 -3.91311 -72.9888 69 63 73 0.460914 0.109201 0.8807 
-46.1321 -1.79006 -73.1026 119 115 125 0.607133 0.0265184 0.794158 
-44.9683 -2.91483 -73.4018 79 73 85 0.597606 0.122472 0.792381 
-45.0264 -2.43097 -73.4177 76 70 82 0.505696 0.126062 0.853452 
-45.2783 -2.66331 -73.2934 50 44 57 0.485237 0.125269 0.865363 
-46.0241 -5.33471 -72.745 115 114 112 0.562707 0.193669 0.80365 
-46.4475 -1.56237 -72.9335 80 78 85 0.526385 0.0960976 0.844798 
-45.7965 -6.02079 -71.5332 108 123 105 0.125978 0.893167 0.431721 
-46.2273 -1.65243 -72.9628 77 74 83 0.53732 0.0931355 0.83822 
-46.3457 -1.36129 -72.9726 132 131 138 0.534219 0.0993561 0.839487 
-46.5188 -7.0288 -72.2517 78 73 82 0.507107 0.110615 0.854755 
-45.3115 -6.74971 -72.8006 32 31 39 0.496096 0.144878 0.856095 
-47.1999 -2.9335 -72.3797 47 51 51 0.594768 0.151314 0.789528 
-44.7362 -3.41934 -73.403 123 117 127 0.447728 0.264358 0.854198 
-45.6641 -2.17997 -73.1839 100 95 107 0.65598 -0.0266887 0.754306 
-45.3678 -5.96953 -72.5804 32 39 36 0.535132 0.0961229 0.839282 
-45.8123 -2.07697 -73.0545 68 63 75 0.652485 -0.0069266 0.75777 
-45.7746 -6.75982 -72.6398 63 60 69 0.562943 0.217465 0.797373 
-45.6222 -2.28222 -73.2184 111 106 118 0.659288 -0.0469903 0.750421 
-44.3586 -5.59269 -73.3677 81 74 86 0.39462 0.0800088 0.915355 
-47.5559 -2.82335 -72.2935 129 137 133 0.507424 0.248314 0.825143 
-45.5146 -2.06126 -73.2536 81 76 88 0.630753 0.0764987 0.772204 
-46.335 -6.67715 -72.4547 37 35 44 0.362231 0.0761888 0.928969 
-47.3145 -4.25124 -72.2788 100 94 107 0.557919 0.0784796 0.826176 
-45.4589 -1.60101 -73.402 83 78 90 0.461635 0.494727 0.7363 
-44.6361 -3.87053 -73.4413 74 69 80 0.73786 0.209707 0.64155 
-46.9875 -1.69759 -72.6799 84 86 86 0.630194 0.0645985 0.773746 
-45.4171 -5.94561 -72.1955 38 57 36 0.642636 0.384921 0.662461 
-45.3554 -5.41513 -72.7538 124 121 123 0.527196 0.431343 0.732125 
-46.327 -7.16083 -72.4519 73 68 80 0.589485 0.161317 0.791508 
-45.291 -1.52737 -73.4586 81 76 88 0.47962 0.389186 0.786447 
-45.4675 -6.0605 -71.8588 122 151 116 0.419076 -0.128404 0.898826 
-45.8535 -6.34651 -72.1195 109 132 105 0.375967 0.401136 0.835307 
-46.3867 -3.62326 -72.7528 100 95 106 0.626297 0.182223 0.757988 
-46.5925 -5.75326 -72.3476 59 62 62 0.352356 0.238316 0.905014 
-46.228 -4.88274 -72.5348 87 85 89 0.562146 0.153584 0.812652 
-47.1249 -1.53923 -72.6424 62 63 65 0.654859 -0.0468771 0.754296 
-46.3629 -3.19334 -72.816 111 106 118 0.608436 0.188508 0.77089 
-43.8075 -6.37874 -73.5132 87 82 93 0.399926 0.284358 0.871321 
-45.583 -2.79651 -73.1449 83 77 89 0.433548 0.192525 0.880324 
-45.4064 -2.90587 -73.262 78 72 84 0.520006 0.204667 0.82928 
-45.5049 -2.57862 -73.2308 85 79 91 0.466401 0.195203 0.862767 
-46.3156 -1.11804 -73.009 91 88 96 0.466179 0.182032 0.865761 
-46.0374 -1.00024 -73.1847 81 78 87 0.521706 0.171909 0.835626 
-45.6738 -3.59734 -73.1023 89 83 93 0.411494 0.0249788 0.91107 
-44.8261 -4.9037 -73.3404 96 92 99 0.657467 0.159432 0.736423 
-46.4185 -6.98567 -72.3819 88 86 93 0.549725 0.146692 0.822365 
-45.0887 -2.44112 -73.4795 85 77 89 0.590031 0.11624 0.798969 
-46.1212 -3.23927 -72.9302 83 76 87 0.569854 0.241993 0.785306 
-45.7472 -2.66208 -73.0729 93 88 100 0.530554 0.310685 0.788662 
-46.1354 -5.62726 -72.6468 101 104 99 0.490724 0.390312 0.779004 
-45.4447 -5.48437 -73.0187 105 104 106 0.509237 0.505898 0.696236 
-45.7926 -6.55378 -72.6918 74 72 79 0.574517 0.131445 0.807869 
-45.0869 -2.01114 -73.4145 64 57 69 0.621334 0.116592 0.774823 
-46.9048 -1.49183 -72.7644 101 101 104 0.630194 0.0645985 0.773746 
-44.2643 -6.41017 -73.2848 67 63 73 0.286191 0.0491693 0.95691 
-44.965 -3.39442 -73.3202 86 81 92 0.73639 0.20929 0.643372 
-46.3109 -2.57581 -72.8786 52 49 58 0.452909 0.532542 0.715033 
-45.5465 -2.74848 -73.1965 85 79 92 0.518565 0.338753 0.785072 
-46.5657 -1.35622 -72.7652 109 107 112 0.550824 0.149955 0.82104 
-45.2903 -2.91426 -73.241 75 68 80 0.519146 0.136002 0.843795 
-46.0504 -2.24998 -73.0247 100 96 107 0.665955 -0.0984967 0.73946 
-45.3868 -1.22118 -73.3947 55 51 62 0.544185 0.130546 0.828746 
-45.3884 -2.09279 -73.3228 107 101 114 0.654266 -0.0323615 0.755572 
-46.0236 -3.64591 -72.9141 90 84 93 0.5491 0.0261476 0.835348 
-45.0474 -3.91208 -73.2178 101 95 104 0.513672 0.245267 0.822183 
-46.6543 -5.3766 -72.4161 63 61 66 0.515013 -0.120411 0.848683 
-46.7518 -6.94503 -72.1686 66 62 75 0.466401 0.195203 0.862767 
-45.8904 -2.37321 -73.1263 78 73 85 0.618199 0.171638 0.767053 
-44.9756 -5.973 -73.0669 41 38 48 0.548825 0.407086 0.730118 
-45.7418 -2.68271 -73.1073 89 83 95 0.47915 0.42682 0.766968 
-45.7933 -5.09704 -72.8609 127 124 123 0.484478 0.112902 0.867487 
-44.4218 -5.42733 -73.2982 92 85 96 0.575846 0.214591 0.788893 
-45.915 -3.69586 -72.9139 69 64 74 0.526777 0.0232603 0.849685 
-47.34 -4.7012 -72.1559 118 110 123 0.408974 0.281264 0.868119 
-45.6494 -1.49818 -73.2996 77 72 84 0.519974 0.256107 0.814884 
-45.2555 -1.51038 -73.4196 82 77 89 0.457925 0.384015 0.801771 
-45.3185 -1.35363 -73.4186 72 67 79 0.476621 0.309882 0.822682 
-47.2229 -1.35901 -72.6098 86 86 89 0.545407 0.102716 0.831854 
-44.6146 -4.276 -73.3831 97 91 100 0.486338 0.0770853 0.870364 
-45.1622 -1.28567 -73.4874 110 105 117 0.479511 0.306572 0.822243 
-45.5032 -0.881254 -73.4108 101 97 108 0.480425 0.0977856 0.871567 
-45.3922 -1.20192 -73.4293 48 43 54 0.519539 0.298458 0.800626 
-45.6052 -1.10978 -73.352 83 79 90 0.508312 0.291139 0.810467 
-44.5266 -6.05275 -73.241 69 65 76 0.590642 0.0761655 0.803331 
-44.4955 -4.80094 -73.3616 88 83 94 0.586107 0.161217 0.794032 
-45.9755 -1.8531 -73.1242 83 79 89 0.616012 0.094659 0.782029 
-47.3397 -1.41561 -72.5418 80 79 84 0.552531 0.0813805 0.82951 
-45.8824 -3.06383 -73.0967 84 78 90 0.679463 0.101698 0.726627 
-44.3413 -3.95063 -73.5159 100 95 106 0.33292 0.394858 0.856301 
-45.725 -4.68058 -72.7481 99 96 99 0.592554 0.154514 0.790572 
-45.7786 -1.17978 -73.245 83 79 89 0.51961 0.114343 0.846718 
-46.2048 -1.67379 -73.0572 80 77 87 0.505909 0.203874 0.838148 
-44.018 -5.20485 -73.5808 81 75 87 0.513899 0.22857 0.82684 
-47.0071 -6.33693 -72.2202 78 74 81 0.505966 0.266216 0.820443 
-45.5995 -1.6616 -73.3152 127 122 133 0.480711 0.438054 0.759622 
-44.253 -4.79587 -73.4987 95 90 101 0.571262 0.118952 0.812102 
-46.0855 -3.15955 -73.0159 90 84 95 0.567625 0.170137 0.805516 
-46.8754 -1.4304 -72.804 103 101 104 0.427645 0.179523 0.885941 
-46.253 -3.04415 -72.8882 82 77 88 0.604712 0.191365 0.773113 
-47.1674 -3.64927 -72.3656 104 98 111 0.54457 0.20593 0.813041 
-45.1134 -1.12017 -73.5186 85 79 91 0.629351 0.247639 0.736609 
-47.1427 -4.4801 -72.3005 81 74 86 0.487308 0.0828564 0.86929 
-47.4317 -2.95364 -72.0286 79 82 84 0.499322 -0.556483 0.664081 
-45.0835 -0.910505 -73.5238 71 65 78 0.630222 0.145899 0.762584 
-45.0154 -1.29082 -73.5373 58 53 65 0.567491 0.23788 0.788268 
-46.5612 -2.69153 -72.6462 40 40 47 0.695003 0.0955078 0.712635 
-45.1405 -0.996053 -73.4842 89 84 96 0.612937 0.161936 0.77336 
-45.4176 -2.60159 -73.2375 85 78 90 0.385856 0.289014 0.87612 
-45.815 -5.88309 -71.7758 120 140 116 0.714275 0.210081 0.66759 
-45.3826 -4.53521 -73.0864 86 83 89 0.590606 0.281772 0.756167 
-45.1024 -4.41092 -73.2562 82 78 86 0.545547 0.33634 0.767628 
-47.3412 -1.75315 -72.4568 100 109 98 0.503885 0.107668 0.857034 
-45.8399 -5.56222 -72.4453 88 93 85 0.554036 0.53046 0.641604 
-45.2856 -4.64773 -73.1262 78 75 81 0.563288 0.284024 0.77591 
-45.3234 -6.47641 -72.629 40 43 45 0.597274 0.0612954 0.799691 
-48.0162 -2.17908 -72.0135 68 67 74 0.636136 0.172382 0.752074 
-46.0095 -4.17502 -72.8624 38 33 41 0.614252 -0.0823821 0.784798 
-47.861 -2.92035 -72.1881 75 74 83 0.488243 -0.397407 0.776972 
-45.1968 -4.42358 -73.2001 79 75 83 0.496954 0.293156 0.81676 
-45.758 -5.71274 -72.1037 86 108 82 0.417274 0.549219 0.724045 
-44.9584 -4.90518 -73.2279 130 127 134 0.561904 0.283326 0.777168 
-45.3613 -4.53844 -73.1109 75 71 77 0.520263 0.281351 0.80633 
-46.5176 -5.80642 -72.4103 96 104 96 0.489078 0.113305 0.86485 
-46.4552 -2.93263 -72.7933 75 71 81 0.571538 -0.060983 0.818306 
-44.7206 -3.34312 -73.5111 68 62 74 0.734484 0.212736 0.64442 
-46.6717 -2.90399 -72.7396 70 68 77 0.615992 0.174911 0.768089 
-47.3088 -2.30308 -71.7469 133 159 129 0.485171 0.642977 0.592613 
-45.3414 -5.39363 -72.9475 83 83 85 0.563568 0.134606 0.815029 
-44.9237 -4.67108 -73.2801 114 111 118 0.585187 0.211532 0.782822 
-45.4108 -6.43111 -72.7456 17 18 25 0.510532 0.184151 0.839908 
-45.0006 -4.42999 -73.3015 104 101 109 0.592717 0.225575 0.773177 
-44.605 -4.5274 -73.4104 93 89 99 0.575462 0.217534 0.788367 
-47.6911 -3.87485 -72.1397 49 43 56 0.571526 0.227681 0.788365 
-44.9025 -4.91717 -73.3074 118 115 122 0.596691 0.197874 0.777692 
-44.6764 -4.74213 -73.3183 87 83 92 0.578883 0.225035 0.783743 
-44.5462 -4.97449 -73.3509 88 82 91 0.429568 0.104943 0.896916 
-44.9314 -6.60009 -72.9633 54 52 61 0.532799 0.289324 0.795246 
-47.0416 -6.46327 -72.2251 60 55 66 0.467327 0.198577 0.861494 
-45.5231 -3.36645 -73.1466 69 64 75 0.424697 0.0926863 0.900579 
-44.7982 -4.63615 -73.3729 75 71 80 0.533986 0.299476 0.790679 
-44.9107 -4.87275 -73.3259 101 98 105 0.598516 0.214971 0.77173 
-47.3693 -1.78515 -72.4705 106 114 104 0.666545 0.196406 0.719126 
-47.198 -3.47422 -72.3295 57 51 63 0.648817 0.175562 0.740415 
-45.3914 -4.90328 -72.9957 114 111 113 0.616257 0.162014 0.7707 
-45.8915 -1.23265 -73.1834 86 82 92 0.448899 0.26505 0.853369 
-46.4749 -6.00395 -72.4333 87 91 90 0.537567 0.0994427 0.837337 
-44.9236 -3.13481 -73.3687 55 50 61 0.53296 0.117629 0.837924 
-45.2134 -6.60232 -72.8124 37 36 45 0.56325 0.156873 0.811259 
-46.6368 -6.64334 -72.2967 42 40 49 0.593096 0.215249 0.775825 
-45.0342 -1.66035 -73.4501 89 83 96 0.397197 0.0548319 0.916094 
-45.4749 -1.97651 -73.3191 93 87 99 0.561289 0.147394 0.814389 
-45.2037 -1.9575 -73.4003 99 93 105 0.554478 0.147167 0.819082 
-44.3462 -5.96707 -73.3617 95 90 101 0.41158 0.0692759 0.908737 
-43.9284 -6.06884 -73.5081 85 79 91 0.359016 0.402913 0.841884 
-45.3025 -3.83624 -73.1209 103 97 106 0.30142 0.00615143 0.953472 
-45.2001 -5.03749 -72.933 78 79 81 0.401703 0.0716843 0.91296 
-47.2682 -4.44023 -72.2919 82 76 88 0.562999 0.18362 0.805802 
-45.5533 -1.53765 -73.326 88 84 95 0.54655 0.143673 0.82501 
-44.5055 -4.5946 -73.4055 98 93 102 0.502969 0.0774882 0.860824 
-45.3673 -5.96209 -72.5885 35 38 38 0.661166 0.189565 0.725896 
-46.0773 -4.1567 -72.8126 62 58 67 0.534712 0.0373055 0.84421 
-46.7128 -3.68457 -72.6062 47 41 53 0.653824 0.233621 0.719677 
-47.319 -3.87929 -72.2374 73 66 80 0.415662 0.0952847 0.904514 
-46.5341 -4.39501 -72.5617 66 61 70 0.586712 0.128574 0.799524 
-47.7669 -2.56901 -71.6747 63 63 71 0.318898 -0.675027 0.665314 
-45.6977 -1.03007 -73.2845 62 59 69 0.525283 0.102178 0.84477 
-46.3443 -4.25245 -72.6538 60 55 64 0.593875 0.0762115 0.80094 
-46.3664 -4.60655 -72.5743 71 68 75 0.576564 0.118834 0.808364 
-46.6773 -2.69198 -72.7032 33 34 41 0.594787 0.17102 0.785481 
-46.046 -4.15788 -72.8123 45 41 50 0.585071 0.0580821 0.8089 
-44.5417 -5.18496 -73.3116 84 80 90 0.41589 0.140523 0.898493 
-46.0878 -5.42704 -72.427 98 99 98 0.579327 0.492008 0.649853 
-47.4329 -1.59536 -72.4807 47 47 49 0.624807 0.191894 0.756831 
-47.1922 -3.32226 -72.3868 59 55 66 0.631657 0.268892 0.727122 
-46.4775 -5.99448 -71.7014 73 70 78 0.259754 0.574608 0.776114 
-46.1635 -4.71343 -72.6623 60 58 61 0.588363 0.158 0.79301 
-46.2187 -4.55917 -72.6551 77 74 81 0.589081 0.122541 0.798729 
-46.5465 -4.53121 -72.5345 114 110 118 0.575766 0.122221 0.808428 
-47.095 -2.9005 -72.2896 62 68 65 0.618853 -0.21559 0.755342 
-48.1753 -1.85475 -72.0814 77 74 84 0.64083 0.139572 0.754889 
-46.0494 -6.99827 -72.5706 63 60 70 0.575766 0.122221 0.808428 
-46.0413 -4.66931 -72.765 101 99 102 0.594807 0.161125 0.787555 
-45.6402 -6.90379 -72.6741 79 78 85 0.645577 0.175512 0.743253 
-45.4718 -4.17861 -73.074 110 105 113 0.560297 0.0845461 0.823966 
-46.0089 -4.31428 -72.8351 90 86 94 0.594615 0.0702076 0.800939 
-45.352 -5.41445 -72.7255 103 103 104 0.665064 0.19597 0.720615 
-47.5681 -3.636 -72.169 80 74 87 0.54457 0.20593 0.813041 
-46.8832 -4.08913 -72.507 113 106 118 0.59094 0.0881353 0.801887 
-46.4611 -1.90186 -72.8504 108 106 113 0.574267 0.276851 0.770436 
-45.8291 -4.3715 -72.9576 41 38 45 0.576847 0.147566 0.803412 
-44.598 -5.24644 -73.291 91 86 96 0.520372 0.0659232 0.851391 
-46.1437 -4.62614 -72.6717 32 29 34 0.564428 0.109385 0.818202 
-45.4115 -5.82119 -72.5928 35 42 39 0.456495 -0.214029 0.863599 
-46.5953 -4.98631 -72.4351 70 65 73 0.565243 0.106074 0.818076 
-45.8449 -3.06821 -73.0504 83 77 89 0.49066 0.0890824 0.866786 
-46.2635 -4.30714 -72.6607 61 57 65 0.589081 0.122541 0.798729 
-46.0299 -4.5512 -72.7756 94 91 96 0.586105 0.151398 0.795964 
-46.3042 -4.67778 -72.5993 97 94 101 0.522898 0.0779388 0.848824 
-47.924 -3.17519 -72.0832 76 71 83 0.568562 0.106151 0.815763 
-46.0794 -2.67336 -73.1288 91 87 98 0.501214 0.454897 0.736107 
-46.4862 -4.29888 -72.5678 58 54 63 0.566876 0.125155 0.814241 
-45.8133 -3.23947 -73.0702 82 77 88 0.422853 0.104667 0.900133 
-46.6772 -6.12724 -72.3768 80 79 86 0.537567 0.0994427 0.837337 
-47.7598 -2.51145 -71.8391 87 92 90 0.140027 0.697122 0.703145 
-44.6947 -3.94723 -73.3306 130 124 133 0.731085 0.226997 0.643418 
-46.5572 -4.63634 -72.5013 88 83 92 0.568492 0.0940254 0.817298 
-44.7397 -5.69031 -73.1998 64 60 70 0.434241 -0.101928 0.895011 
-46.0984 -6.84715 -72.5585 65 62 72 0.575766 0.122221 0.808428 
-46.6605 -4.3494 -72.5094 79 74 84 0.553131 0.146809 0.820057 
-46.9392 -5.5915 -71.7461 82 74 87 0.248154 0.712849 0.655947 
-46.2408 -3.28875 -72.8198 93 86 97 0.526929 0.310427 0.79119 
-45.6104 -5.99941 -71.758 85 118 80 0.419987 -0.131511 0.897951 
-46.1671 -4.99439 -72.594 66 65 67 0.601823 0.168268 0.780702 
-44.8694 -3.97516 -73.409 90 84 94 0.528504 0.130296 0.838872 
-45.0489 -1.8912 -73.4256 91 84 96 0.394405 0.0491346 0.917622 
-45.4009 -6.10638 -72.5231 57 67 61 0.419871 -0.0553527 0.905894 
-46.9556 -4.07862 -72.4033 91 83 95 0.47189 0.166117 0.865867 
-45.3338 -6.3722 -72.639 30 32 37 0.525551 0.155445 0.836441 
-44.451 -6.39939 -73.2726 67 62 72 0.398168 0.404514 0.823305 
-47.4929 -2.81298 -72.1888 109 114 115 0.562304 0.160444 0.811217 
-46.4537 -4.07964 -72.6022 71 66 77 0.606046 0.142159 0.782623 
-46.115 -5.12636 -72.5965 73 73 74 0.604044 0.0854643 0.792355 
-46.2339 -3.63392 -72.8179 59 54 65 0.578566 0.266424 0.770896 
-45.9844 -5.24763 -72.7601 105 105 104 0.614099 0.175239 0.769528 
-44.6466 -6.11241 -73.1949 72 68 79 0.611725 0.0886348 0.786089 
-44.6673 -4.40157 -73.3437 98 93 103 0.604536 0.201512 0.770668 
-46.8567 -4.22231 -72.4971 59 53 65 0.561198 0.0785391 0.823947 
-46.542 -1.26491 -72.9106 74 72 79 0.529585 0.0990281 0.842457 
-46.5188 -3.46808 -72.5095 92 86 97 0.734414 -0.0181855 0.678458 
-45.1206 -2.93097 -73.3527 72 66 78 0.525551 0.155445 0.836441 
-45.0576 -3.51207 -73.2538 93 87 97 0.590887 0.0493581 0.805243 
-46.2861 -3.25255 -72.8132 90 83 94 0.578934 0.241873 0.778674 
-47.7375 -2.98284 -72.2001 44 44 52 0.593976 0.164742 0.787434 
-45.4927 -2.87979 -73.148 110 105 117 0.52043 0.136338 0.84295 
-44.8874 -5.46766 -73.3148 85 82 90 0.55031 0.424713 0.718873 
-45.8649 -3.34293 -73.0492 103 96 107 0.349075 0.0347787 0.936449 
-47.3367 -3.12085 -72.2811 89 87 98 0.453871 0.30414 0.837556 
-45.0709 -4.53786 -73.2501 94 90 96 0.584447 0.197884 0.786933 
-47.1478 -4.43019 -72.2999 60 55 67 0.561711 0.06367 0.82488 
-44.9059 -1.90985 -73.4865 92 85 98 0.541445 0.271507 0.795689 
-46.953 -4.56067 -72.4003 105 100 111 0.558042 0.0756425 0.826358 
-47.0433 -4.21251 -72.38 67 61 74 0.559237 0.078665 0.825267 
-46.9527 -4.14512 -72.4893 74 67 80 0.468538 0.341477 0.81478 
-46.0234 -3.28803 -73.0019 85 79 90 0.613401 0.208587 0.761729 
-46.6146 -2.24743 -72.693 46 47 53 0.638758 0.155537 0.753523 
-47.634 -1.44261 -72.3967 51 50 57 0.633552 0.168643 0.755097 
-45.6296 -5.55077 -72.3012 70 79 68 0.438562 -0.105087 0.892536 
-45.7995 -3.8057 -72.9606 66 60 69 0.560547 0.0936647 0.822808 
-47.5997 -4.01892 -72.1117 74 68 81 0.495259 0.187031 0.848374 
-44.8213 -2.9683 -73.4263 75 69 81 0.432431 0.0931603 0.896842 
-45.974 -5.80412 -71.8669 123 144 119 0.400956 0.569258 0.71776 
-47.2207 -4.25829 -72.3296 105 99 112 0.540416 0.0723391 0.838283 
-45.354 -5.21431 -72.8339 85 88 88 0.440356 -0.00657247 0.897799 
-44.9234 -2.57075 -73.4416 94 88 100 0.48742 0.080066 0.869489 
-46.7576 -5.91481 -72.2386 70 68 77 0.494963 0.0950215 0.863703 
-47.2937 -3.03777 -72.1635 86 87 91 0.70472 0.213127 0.676718 
-46.2349 -2.87849 -72.9068 86 81 93 0.641624 0.0920782 0.761472 
-47.6307 -3.8464 -72.1617 63 56 69 0.575556 0.125121 0.808134 
-46.0559 -2.99262 -73.0218 72 67 79 0.652286 0.0952777 0.751961 
-46.841 -2.63609 -72.1705 81 100 80 0.712169 0.0412233 0.700797 
-45.8161 -1.82557 -73.3138 92 87 98 0.617696 0.107106 0.779089 
-45.1781 -5.77522 -72.9828 86 85 92 0.574861 0.378327 0.725537 
-46.5404 -3.9265 -72.6003 71 66 77 0.584161 0.0760701 0.808065 
-45.7277 -3.20482 -73.0575 75 69 81 0.526185 0.133378 0.839845 
-44.972 -5.86738 -73.0671 43 39 49 0.667081 0.182489 0.722288 
-45.4323 -5.87142 -72.6634 34 38 37 0.567064 0.374229 0.733751 
-45.3045 -3.80797 -73.0921 71 66 77 0.36393 0.0933501 0.926737 
-45.2527 -5.98198 -72.7829 35 36 41 0.605265 0.314738 0.73116 
-45.4594 -5.70505 -72.8676 95 95 98 0.585662 0.360533 0.725959 
-47.1142 -1.61135 -72.6656 77 77 79 0.540053 0.31065 0.782201 
-45.7449 -6.40341 -71.8353 139 160 133 0.0809826 0.904535 0.418639 
-44.6827 -6.4872 -73.2141 73 68 78 0.497311 0.311017 0.809907 
-45.3145 -5.86838 -72.8807 39 40 44 0.604187 0.325581 0.727293 
-45.0442 -5.74775 -73.1703 73 68 78 0.602359 0.339334 0.722506 
-45.1037 -5.99849 -73.0311 79 76 86 0.600354 0.346546 0.72075 
-45.2876 -5.63436 -73.048 137 134 140 0.581422 0.35667 0.731256 
-45.5528 -1.18241 -73.3054 64 60 72 0.533824 0.0722149 0.842507 
-46.7136 -6.26993 -72.2886 67 66 75 0.522996 0.114451 0.844616 
-47.5759 -2.68462 -72.01 97 107 104 0.495825 -0.586586 0.64037 
-47.9591 -2.15605 -72.1901 83 86 88 0.573233 0.106478 0.812445 
-45.0798 -4.95767 -73.1195 104 101 106 0.573398 0.287493 0.767178 
-47.7715 -3.33234 -72.1467 83 78 91 0.591716 0.167981 0.788451 
-48.0221 -2.06895 -72.1118 72 71 79 0.5881 0.128878 0.798454 
-44.7757 -4.99966 -73.4103 102 98 107 0.618078 0.268522 0.738834 
-44.8221 -5.19976 -73.293 112 109 117 0.613212 0.267785 0.743143 
-44.5386 -3.81603 -73.5206 50 45 55 0.735954 0.213162 0.642599 
-44.3384 -4.09008 -73.4399 89 83 94 0.5982 0.497096 0.628532 
-44.3069 -6.44616 -73.3459 78 73 84 0.575962 0.141386 0.805157 
-47.1663 -4.16114 -72.3671 53 47 60 0.540416 0.0723391 0.838283 
-46.4701 -3.57038 -72.6071 91 84 95 0.599006 0.122759 0.791279 
-44.2857 -5.19062 -73.3789 126 120 131 0.375307 0.147593 0.915074 
-45.2837 -2.18306 -73.3419 72 66 78 0.480963 0.119164 0.868605 
-46.7556 -1.62241 -72.8558 106 105 108 0.625405 0.233547 0.74453 
-45.3879 -6.18076 -72.7879 38 43 44 0.535203 0.140067 0.83303 
-45.1897 -4.99587 -73.0824 87 85 89 0.507027 0.424984 0.749875 
-47.0021 -5.46774 -72.224 55 51 60 0.514082 0.0988069 0.852031 
-46.1229 -5.1058 -72.6385 96 95 95 0.441897 -0.0445951 0.895957 
-47.295 -4.10386 -72.2884 83 77 91 0.504603 0.31162 0.805151 
-45.1161 -1.68487 -73.4351 97 91 104 0.468434 0.465147 0.751138 
-44.2614 -6.07617 -73.3833 107 101 112 0.410174 0.0749486 0.908923 
-46.6006 -7.25822 -72.2607 82 77 89 0.565582 0.134381 0.81367 
-45.1668 -1.5107 -73.4757 46 40 53 0.468237 0.455093 0.757393 
-47.7853 -2.06119 -72.2594 59 67 62 0.541542 0.219378 0.811545 
-48.0135 -1.94956 -72.1855 56 56 63 0.620125 0.11342 0.776261 
-45.3893 -1.42349 -73.4098 52 47 59 0.479147 0.277564 0.832692 
-45.0579 -1.27973 -73.5271 54 48 61 0.47671 0.29853 0.826818 
-45.282 -1.19324 -73.4633 81 75 87 0.486044 0.303581 0.819512 
-46.6491 -4.96643 -72.4418 61 57 66 0.564238 0.0667989 0.822906 
-46.4019 -2.05335 -72.6691 34 35 41 0.478632 -0.0229204 0.877716 
-45.2163 -5.15216 -72.9025 118 114 115 0.681844 0.166266 0.712351 
-45.7403 -7.02525 -72.677 83 80 88 0.492254 -0.154289 0.856669 
-45.509 -4.59012 -72.9867 127 123 127 0.546897 0.337173 0.766301 
-46.0743 -2.65128 -73.0189 81 77 88 0.375152 0.584844 0.719178 
-43.8936 -5.8504 -73.4413 79 73 85 0.519504 0.123691 0.845468 
-46.9542 -5.24902 -72.1719 57 53 63 0.482854 0.128281 0.866254 
-45.8178 -3.75909 -72.9934 69 63 72 0.445735 0.0644601 0.892841 
-44.1619 -4.76353 -73.5757 103 98 109 0.519473 0.249657 0.817202 
-45.0335 -1.22546 -73.5243 43 37 50 0.637258 0.175743 0.750345 
-46.6723 -2.68383 -72.3889 32 37 39 0.607086 0.0293076 0.794096 
-44.6948 -4.19662 -73.3701 86 81 91 0.605153 0.178345 0.775876 
-46.167 -1.53764 -73.0714 130 126 135 0.512291 0.197965 0.835684 
-44.8937 -5.98042 -73.0862 80 76 86 0.500119 0.203976 0.84159 
-44.1701 -5.63984 -73.4091 74 69 80 0.282619 0.173395 0.94343 
-45.6984 -3.28429 -73.0749 83 78 89 0.421549 0.125478 0.898082 
-43.9578 -6.57361 -73.4317 75 70 80 0.541948 0.114783 0.832537 
-43.9447 -6.45628 -73.4272 59 53 65 0.400285 0.290701 0.86906 
-44.6642 -6.22704 -73.1768 77 72 83 0.540497 0.0841407 0.837128 
-47.2162 -3.8554 -72.2468 70 63 76 0.640808 0.265546 0.720313 
-44.173 -4.72023 -73.5426 99 94 105 0.437787 0.154598 0.885687 
-46.776 -5.12182 -72.1467 93 88 98 0.398615 0.354846 0.845689 
-46.1307 -3.99635 -72.7974 64 59 69 0.586414 0.0582154 0.807917 
-47.896 -2.48681 -72.0368 99 104 103 0.498307 0.174036 0.849354 
-45.3683 -3.27949 -73.1237 98 92 103 0.442468 0.305846 0.843018 
-45.0807 -3.18397 -73.2958 71 66 77 0.530692 0.136716 0.836465 
-45.6499 -1.11205 -73.2884 112 107 117 0.418398 0.137575 0.897784 
