ply
format ascii 1.0
comment Created by CloudCompare v2.11 alpha (Anoia)
comment Created 15/10/2019 14:54
obj_info Generated by CloudCompare!
element vertex 737
property float x
property float y
property float z
property uchar red
property uchar green
property uchar blue
property float nx
property float ny
property float nz
end_header
-46.0761 35.1454 -76.9274 89 85 99 0.433412 0.15119 0.888423 
-48.6397 37.1007 -75.5826 110 125 117 0.331934 0.52436 0.784134 
-46.2255 37.6029 -77.009 85 82 92 0.333078 -0.285707 0.898571 
-47.8883 37.0799 -76.0453 140 144 133 0.263284 0.401695 0.87711 
-47.0524 37.2716 -76.5468 69 65 69 0.235688 -0.358655 0.903226 
-48.0021 36.412 -75.4293 49 70 58 0.339124 0.446382 0.828093 
-48.9555 36.8288 -75.632 151 152 153 0.629226 0.43228 0.645917 
-46.0948 35.7985 -76.8076 104 105 116 0.463647 -0.6009 0.651115 
-46.245 35.6007 -76.8951 69 66 81 0.55153 -0.461552 0.694827 
-46.0055 35.7105 -76.977 126 119 133 0.454733 0.093745 0.88568 
-46.1949 38.3299 -77.1891 110 104 118 0.515651 -0.0121807 0.856712 
-47.2379 35.6517 -76.3557 35 40 55 0.248762 0.0662532 0.966296 
-47.2838 34.8597 -76.2338 48 51 64 0.498446 0.254624 0.828685 
-48.9829 37.6683 -75.6294 150 153 157 0.312876 0.105179 0.943952 
-44.7752 35.2638 -77.5484 141 133 145 0.454553 0.278895 0.845931 
-47.6999 36.5202 -75.7922 56 79 64 0.339557 -0.589756 0.732727 
-46.1782 35.2133 -76.8889 105 101 116 0.442873 0.129587 0.88717 
-48.8885 36.1313 -75.3076 122 125 124 0.314738 0.73116 0.605265 
-48.7057 34.802 -75.4052 109 107 117 0.658092 -0.129828 0.74166 
-46.2185 37.9822 -77.114 78 75 86 0.546776 0.264771 0.794313 
-46.6899 36.4963 -76.6441 110 111 116 0.517957 0.174643 0.837389 
-49.0334 35.8498 -75.0556 140 146 144 0.406554 -0.387571 0.827346 
-45.3384 36.9985 -77.5471 134 129 142 0.472747 0.088377 0.876755 
-49.1872 36.0804 -75.1355 143 150 150 0.188051 -0.52203 0.831938 
-46.3194 37.5631 -76.9547 98 94 104 0.39364 -0.242126 0.886805 
-45.6054 35.3245 -77.2496 58 54 66 0.367871 -0.0875884 0.925742 
-46.8708 35.7623 -76.379 46 46 61 0.656558 -0.166044 0.735772 
-47.5633 35.5794 -75.8783 38 41 54 0.563489 -0.367493 0.739885 
-46.0686 36.5075 -77.1567 109 105 117 0.493883 0.091984 0.864649 
-47.5645 37.1274 -76.1985 126 126 116 0.473791 0.415178 0.776627 
-45.1375 36.8988 -77.5881 124 119 131 0.471701 0.085382 0.877615 
-46.8781 36.0171 -76.3134 53 54 67 0.632243 -0.041018 0.773684 
-265.288 -20.4014 -86.1563 134 172 197 0.108177 0.989876 -0.0918921 
-47.0371 35.426 -76.3595 42 42 61 0.513864 0.110833 0.850682 
-46.4538 36.6677 -76.8475 102 101 107 0.313975 0.214526 0.924877 
-48.4494 35.3123 -75.5501 45 43 52 0.718079 -0.37958 0.583337 
-49.2455 34.2637 -75.0339 114 111 119 0.515913 0.126435 0.847259 
-48.7863 36.9791 -75.4867 140 144 143 0.554804 0.645867 0.52445 
-48.5494 36.8287 -75.6594 106 118 109 0.601093 0.61793 0.506804 
-47.4595 36.0668 -76.0687 29 39 41 0.304332 -0.503015 0.808924 
-45.005 35.0579 -77.5177 87 83 95 0.387409 -0.185784 0.902994 
-47.4137 36.6547 -75.9483 117 129 113 -0.0236762 0.795241 0.605831 
-48.2085 35.3099 -75.89 75 71 83 0.445057 0.0845746 0.8915 
-47.3657 35.8192 -76.0325 24 31 39 0.327084 -0.35751 0.874759 
-47.2965 35.4516 -76.0015 72 81 90 0.512925 0.104884 0.852002 
-48.6864 36.8327 -75.5199 113 123 115 0.370241 0.636814 0.676306 
-49.9859 35.204 -74.6853 101 98 106 0.663504 -0.319585 0.676482 
-47.6524 36.0277 -75.5553 32 46 45 0.684652 -0.344777 0.642168 
-48.9769 36.4685 -75.4517 99 101 102 0.299089 0.759718 0.577386 
-45.5467 36.3115 -77.1162 122 115 128 0.524101 0.313824 0.791728 
-48.4938 35.6609 -75.3276 84 100 89 0.314179 0.113639 0.942538 
-48.8795 36.713 -75.4858 117 122 120 0.35143 0.658726 0.665264 
-47.6948 34.4993 -75.99 154 150 164 0.48171 0.0856685 0.872133 
-46.0334 36.9155 -77.1809 97 93 105 0.491608 0.0949215 0.865628 
-48.8377 37.466 -75.5756 112 110 118 0.453725 0.090745 0.886509 
-46.9395 37.8745 -76.6579 128 122 132 0.486399 0.278164 0.828276 
-47.6745 36.1368 -75.9205 29 40 44 0.546304 -0.0575796 0.835606 
-46.5175 35.5033 -76.6684 47 45 60 0.597991 0.00962284 0.801445 
-46.5146 37.2223 -76.8523 91 87 97 0.559241 0.193525 0.8061 
-46.4057 37.4778 -76.9801 127 122 132 0.410391 -0.344854 0.844189 
-47.4965 36.9414 -75.9514 134 146 124 0.107658 0.641527 0.759509 
-49.562 35.4283 -74.9012 109 109 117 0.379457 -0.420737 0.82401 
-45.4315 38.1299 -77.5081 105 98 111 0.540184 0.383515 0.749078 
-47.8698 34.5511 -75.9517 183 178 191 0.564985 0.0262462 0.824684 
-49.9797 36.0635 -74.4858 137 133 136 0.374667 0.767175 0.520641 
-47.0722 34.8896 -76.3663 54 51 69 0.54531 0.114879 0.830325 
-48.0432 36.7068 -75.5692 110 124 110 -0.128379 0.901476 0.413353 
-48.1841 36.6316 -75.5437 113 127 114 -0.145388 0.907617 0.393818 
-50.3071 37.1152 -74.9 151 150 156 0.43417 0.336991 0.835424 
-47.1918 35.2946 -76.319 52 54 71 0.378658 0.0115523 0.925465 
-45.7092 35.0566 -77.1487 157 154 167 0.420305 0.110312 0.900653 
-46.8113 37.2783 -76.6824 145 141 149 0.578892 0.125206 0.805735 
-48.7623 37.2859 -75.6872 143 153 150 0.722485 0.0709455 0.687737 
-49.0704 34.8858 -75.2693 52 49 61 0.642253 0.0295127 0.765925 
-46.5076 36.6415 -76.7174 112 108 115 0.330539 0.15628 0.930764 
-48.1764 35.0399 -75.7723 124 120 131 0.227628 0.0474731 0.97259 
-48.5576 37.1605 -75.4414 116 131 123 0.283702 0.568988 0.771859 
-48.044 34.9415 -75.9088 145 143 154 0.488806 0.0013319 0.872392 
-47.1364 37.5098 -76.4852 145 142 148 0.493075 0.325017 0.806995 
-48.5951 35.5765 -75.4638 81 80 86 0.787204 -0.317756 0.528528 
-46.6682 35.8916 -76.4607 58 59 75 0.550251 -0.293362 0.781769 
-47.5343 36.9622 -75.9195 145 157 135 0.0124398 0.794767 0.606787 
-46.8472 36.5198 -76.579 89 91 92 0.626538 -0.0351987 0.778596 
-45.4351 35.37 -77.2734 51 47 60 0.545331 -0.192917 0.815719 
-47.0911 36.1696 -76.2579 43 51 56 0.430497 0.0872069 0.898369 
-47.5803 37.3423 -76.3425 155 156 151 0.584768 0.128797 0.80091 
-48.8086 34.8156 -75.3777 177 175 186 0.427471 -0.315551 0.84717 
-44.7064 35.2076 -77.6064 60 55 68 0.474429 -0.0367037 0.879528 
-46.1426 37.8966 -77.0751 100 94 107 0.506415 0.231023 0.830766 
-46.2888 38.2155 -77.1291 128 121 135 0.503916 0.337544 0.795068 
-49.4781 35.8103 -74.9423 101 107 112 0.477986 -0.445135 0.757222 
-49.9285 35.3214 -74.6272 126 123 130 0.398444 0.0715848 0.914395 
-46.1849 35.6923 -76.8416 50 51 62 0.463647 -0.6009 0.651115 
-49.6728 34.076 -74.8785 116 111 122 0.507342 0.234512 0.829221 
-47.7394 36.6912 -75.2262 57 71 61 0.00402864 0.860786 0.508951 
-47.3389 37.5831 -76.4284 154 151 156 0.571173 0.177261 0.801461 
-45.2609 35.6644 -77.3279 140 138 145 0.374378 -0.0878504 0.923105 
-45.5944 38.6224 -77.6653 100 94 108 0.620406 0.145713 0.770626 
-49.3053 37.0543 -75.3543 149 153 155 0.469944 0.159576 0.868152 
-49.6761 36.5031 -75.0874 172 179 179 0.3476 -0.687041 0.638083 
-48.8166 33.9787 -75.3181 76 71 81 0.38376 -0.0628457 0.921292 
-48.4092 36.8356 -75.4424 78 92 80 0.382097 0.341876 0.858558 
-47.9476 35.3346 -75.5997 48 48 59 0.763893 -0.382761 0.519578 
-49.0021 37.3829 -75.4892 164 162 169 0.468251 0.201961 0.860205 
-49.227 34.4001 -75.0589 139 136 144 0.507342 0.234512 0.829221 
-46.6882 36.4456 -76.6558 119 119 127 0.663917 0.104519 0.740466 
-49.009 34.8706 -75.3214 85 84 95 0.60759 0.0236362 0.793899 
-47.4791 34.7043 -76.1888 108 111 123 0.494045 0.163698 0.853887 
-47.0511 34.8636 -76.336 61 65 77 0.511823 0.101791 0.853039 
-46.7498 35.7059 -76.349 42 43 61 0.58279 -0.345778 0.735387 
-49.8272 35.8368 -74.7312 92 90 96 0.369808 0.616347 0.69524 
-48.1725 36.9209 -75.761 103 124 108 0.5204 0.129736 0.84401 
-49.9 35.5306 -74.7416 153 153 155 0.522184 0.357284 0.774385 
-46.7751 36.4838 -76.5481 96 98 100 0.335436 0.160063 0.928365 
-48.6293 34.9993 -75.4902 106 104 115 0.668459 -0.0678565 0.740647 
-45.352 35.4691 -77.151 98 92 104 0.455143 0.0821205 0.886624 
-49.1617 34.8197 -75.239 133 130 142 0.636072 0.0526502 0.769832 
-49.5263 35.5328 -74.8026 114 114 119 0.450064 0.499522 0.740216 
-46.5384 37.4174 -76.8912 78 72 82 0.372269 -0.485078 0.791274 
-48.8549 37.4475 -75.6623 107 110 113 0.626572 0.11352 0.771052 
-49.0102 34.2413 -75.2236 105 105 111 0.51258 0.283722 0.81041 
-49.2247 34.3556 -75.1421 136 135 142 0.491343 0.387561 0.779986 
-49.0672 34.3326 -75.0604 103 102 109 0.519836 0.188346 0.833244 
-47.0788 35.8961 -76.2386 49 53 67 0.525067 0.0750095 0.847749 
-48.4951 36.6431 -75.3903 137 148 138 0.512725 0.703118 0.492684 
-48.6406 35.7552 -75.2306 77 84 84 0.76116 -0.32989 0.558398 
-45.3771 37.6107 -77.6042 42 37 50 0.438814 0.305464 0.845065 
-49.6409 35.3443 -74.6986 118 117 124 0.625948 -0.348112 0.697859 
-48.7642 36.1261 -74.9087 74 94 82 0.220952 -0.836569 0.501332 
-46.7549 36.0368 -76.3803 81 79 93 0.580458 0.0911942 0.809167 
-47.2111 36.8639 -76.3087 105 114 103 0.660278 0.123709 0.740763 
-47.7109 37.0832 -76.0608 126 130 116 0.265627 0.391688 0.880922 
-48.2352 35.647 -75.0435 68 78 75 0.606638 -0.525528 0.596499 
-46.9614 38.3282 -76.8971 144 141 152 0.311458 -0.173032 0.934373 
-48.2978 35.2341 -75.773 66 63 73 0.420798 0.0305311 0.90664 
-45.0772 35.4986 -77.4335 69 66 75 0.446363 -0.164296 0.87964 
-47.4567 36.092 -73.7232 126 152 135 0.68543 -0.162619 0.709747 
-50.0971 35.8954 -74.5661 119 118 118 0.370365 -0.0963221 0.923878 
-45.8709 37.9531 -77.3827 90 86 98 0.579014 0.134758 0.804104 
-48.1542 37.3101 -75.9486 120 128 123 0.54919 0.04891 0.834265 
-49.2945 34.6301 -75.1184 97 92 103 0.539612 0.0992886 0.836039 
-45.2449 35.9673 -77.2294 77 72 81 0.553269 0.153603 0.818718 
-47.6488 36.0552 -75.9768 38 50 50 0.442343 0.0962828 0.891663 
-49.2406 36.1478 -75.2122 146 145 150 0.475131 0.363147 0.801483 
-49.8413 35.0882 -74.8241 94 91 101 0.640381 -0.325865 0.695503 
-45.569 37.5957 -77.4094 104 99 111 0.262985 -0.0511013 0.963446 
-47.8852 36.9095 -75.824 134 156 136 0.488648 0.125405 0.863422 
-46.0552 38.3302 -77.2622 95 93 104 0.244822 -0.253216 0.935919 
-48.5395 37.2416 -75.8474 71 70 73 0.46514 0.0824123 0.881392 
-46.7851 35.4777 -76.4817 69 70 87 0.637335 -0.142463 0.757304 
-49.5253 37.193 -75.2653 144 140 151 0.509396 0.107619 0.853776 
-48.5609 34.4057 -75.6064 143 137 149 0.38375 -0.594565 0.706561 
-44.8588 35.793 -77.5262 129 123 134 0.530657 -0.0929723 0.842472 
-47.6926 36.3952 -75.8426 52 71 62 0.368279 -0.577789 0.728375 
-45.0005 36.1197 -77.5225 65 60 72 0.449691 0.0788688 0.889696 
-48.0479 37.4468 -76.0897 127 127 125 0.398703 0.249376 0.882523 
-50.0127 36.1296 -74.8057 62 61 64 0.553575 0.213149 0.80506 
-45.8569 38.4704 -77.5113 81 78 90 0.518711 0.29483 0.802505 
-47.639 36.376 -73.7831 66 92 76 0.417854 0.499786 0.758691 
-47.7042 36.3144 -73.6999 93 118 102 0.378763 0.485139 0.788149 
-45.8925 37.9513 -77.267 75 73 83 0.237274 -0.378753 0.894565 
-50.4472 37.0986 -74.797 166 162 169 0.737682 -0.104542 0.667006 
-47.4967 36.2444 -73.734 120 147 130 0.42124 0.496637 0.758887 
-47.2884 36.1144 -75.7023 37 48 51 0.00965266 0.787381 0.616391 
-47.2541 36.3424 -73.9054 122 147 132 0.432202 0.46156 0.774702 
-48.3521 37.2164 -75.8094 106 119 113 0.476195 0.125163 0.870386 
-47.1138 36.4088 -73.9571 103 127 112 0.447125 0.434118 0.782062 
-47.6562 36.4942 -73.8151 95 119 104 0.427607 0.486588 0.761829 
-47.7077 36.5358 -73.8002 104 127 113 0.42124 0.496637 0.758887 
-48.6246 35.0288 -75.5507 107 102 113 0.37958 -0.583337 0.718079 
-48.5058 35.3745 -75.6921 51 51 57 0.577581 -0.0405565 0.815326 
-47.5346 36.1756 -73.66 95 121 105 0.391975 0.439972 0.807948 
-47.0852 35.5962 -76.3323 41 42 60 0.541019 0.11812 0.832674 
-47.1011 34.736 -76.3209 34 30 47 0.512769 0.107724 0.851742 
-46.6116 34.6242 -76.6287 126 122 137 0.464244 -0.42515 0.776998 
-47.5622 36.0033 -73.6232 72 97 81 0.461957 0.308493 0.831522 
-49.4374 34.4477 -74.9591 162 159 171 0.400616 -0.145807 0.90457 
-49.9609 36.0841 -74.7015 78 75 79 0.258871 0.671795 0.69403 
-47.0486 35.5947 -76.2669 47 50 66 0.694093 -0.290141 0.658827 
-45.3925 35.4794 -77.0275 125 123 130 0.550678 0.159682 0.819302 
-46.7453 36.9084 -76.6713 133 128 133 0.622547 -0.0293786 0.782031 
-48.8522 34.0357 -75.2695 144 140 151 0.581328 0.160729 0.797636 
-45.1108 35.5197 -77.3929 70 66 78 0.498612 0.135192 0.856218 
-46.1654 35.4362 -76.9 64 63 75 0.343782 0.0783133 0.935778 
-45.9447 37.1296 -77.232 113 109 121 0.408652 0.0833704 0.908875 
-49.1728 36.0648 -75.0611 139 139 143 0.270836 0.803114 0.530713 
-46.9588 36.8741 -76.5043 136 138 135 0.292531 -0.450404 0.843541 
-47.9994 36.5535 -75.5704 51 70 58 0.397047 0.39072 0.830477 
-46.0939 34.7486 -76.8829 79 77 88 0.353087 0.115878 0.928387 
-49.3558 35.4248 -75.0731 80 80 85 0.332868 0.703082 0.62839 
-49.8426 34.5525 -74.8418 69 65 76 0.525947 0.0288378 0.850029 
-49.1197 35.5077 -75.2911 170 173 175 0.332868 0.703082 0.62839 
-49.9519 37.3987 -75.1818 73 70 77 0.295806 0.0287069 0.954817 
-49.4733 35.7654 -74.9498 91 90 97 0.437821 0.590975 0.677541 
-47.5611 37.6348 -76.2554 116 113 117 0.549424 0.206608 0.809597 
-50.2587 36.7186 -74.8415 82 82 85 0.592594 0.132183 0.794581 
-49.364 34.261 -74.9978 109 110 118 0.399092 0.0946301 0.912015 
-48.4579 35.1372 -75.7039 36 32 41 0.348077 -0.508481 0.787584 
-45.3556 36.3803 -77.4652 127 122 132 0.398496 -0.0302488 0.916671 
-47.2848 36.7264 -76.0346 112 120 104 -0.0236762 0.795241 0.605831 
-49.2404 36.9017 -75.1865 116 122 123 0.426811 0.336133 0.839551 
-48.845 35.2801 -75.2351 138 139 144 0.401713 -0.379658 0.833358 
-47.6072 37.831 -76.3924 106 102 107 0.33352 -0.268873 0.903588 
-48.3061 34.8426 -75.6613 111 109 119 0.217304 0.0497736 0.974834 
-49.7408 34.9584 -74.8947 172 169 176 0.363427 0.0511685 0.930216 
-45.511 37.2879 -77.442 104 98 110 0.395952 -0.1929 0.897781 
-46.4226 36.1003 -76.7562 61 60 74 0.525127 0.105025 0.844519 
-49.7776 35.151 -74.8378 142 140 145 0.372858 0.0219328 0.927629 
-47.231 36.0478 -76.1707 40 48 56 0.534721 0.0122455 0.84494 
-45.8836 38.1194 -77.3048 117 114 126 0.542866 0.236634 0.805792 
-48.9308 37.0829 -75.5645 153 153 157 0.461371 0.12427 0.878461 
-48.9801 37.2684 -75.5319 168 166 173 0.463936 0.118482 0.87791 
-48.8713 36.289 -75.3381 85 102 92 0.115666 -0.253425 0.960415 
-47.3695 36.6134 -73.9853 96 121 105 0.482703 0.38584 0.786209 
-47.3225 36.4774 -73.9262 144 170 154 0.483931 0.386821 0.784972 
-46.8178 36.0535 -76.4238 59 66 73 0.367925 0.110788 0.923232 
-49.5237 35.6202 -74.9227 126 128 130 0.349555 -0.526749 0.77482 
-47.6164 35.3814 -76.0506 46 47 63 0.576258 -0.049313 0.815779 
-48.2661 35.5034 -75.707 49 46 57 0.725356 -0.41803 0.546909 
-45.914 37.7119 -77.2945 91 87 97 0.237686 -0.351426 0.905541 
-46.4205 37.1514 -76.9347 105 101 111 0.406699 -0.0384178 0.912754 
-45.643 36.1827 -77.0593 69 65 75 0.553269 0.153603 0.818718 
-50.3033 37.1292 -74.888 146 145 151 0.577099 0.144647 0.803763 
-47.004 35.9652 -76.3386 24 31 39 0.367925 0.110788 0.923232 
-49.4747 34.7168 -75.0046 122 119 127 0.322863 0.0395603 0.945619 
-49.2918 36.4427 -75.1915 166 165 172 0.481508 0.267848 0.83451 
-49.0774 33.8096 -75.0494 105 100 107 0.465644 0.103319 0.87892 
-48.8431 33.9002 -75.241 113 110 117 0.489321 0.0978643 0.866595 
-49.6492 34.9383 -74.9508 93 89 101 0.466237 0.348485 0.813131 
-45.943 38.0592 -77.2783 119 116 126 0.237292 -0.314951 0.918966 
-45.2544 36.4115 -77.5502 79 73 85 0.375967 -0.401136 0.835307 
-47.5985 36.0952 -75.873 34 46 46 0.738745 -0.202884 0.642724 
-46.975 35.8769 -76.2461 71 74 87 0.57443 0.0123386 0.81846 
-45.2962 35.5356 -77.4274 92 87 98 0.457346 0.0820164 0.885499 
-46.1543 36.8699 -77.0954 78 73 86 0.491739 0.0921124 0.865857 
-47.8442 36.463 -75.5317 43 62 50 0.419727 0.481788 0.769227 
-47.5887 36.0588 -75.7724 31 43 44 0.701436 -0.391154 0.595808 
-49.4016 35.1448 -75.0192 158 156 164 0.432795 -0.276805 0.857944 
-49.9001 36.5415 -74.8459 161 157 165 0.532946 0.261003 0.804889 
-47.0975 36.805 -76.3269 125 125 120 0.570019 0.128144 0.811577 
-46.9328 36.7 -76.4368 158 155 155 0.568025 0.128359 0.81294 
-45.6125 38.1516 -77.4916 115 110 122 0.16726 0.352792 0.920631 
-47.1474 37.4331 -76.3758 150 145 150 0.217345 -0.0675366 0.973756 
-48.8586 36.4683 -74.9474 91 107 100 0.343893 0.431829 0.833823 
-47.2364 35.8233 -73.9305 46 68 55 0.713241 -0.286899 0.639513 
-48.5871 37.1439 -75.5695 109 123 116 0.319001 0.241055 0.916587 
-49.4161 36.4757 -75.2765 78 84 90 0.539684 0.127243 0.832196 
-45.9644 35.7201 -76.9724 108 105 119 0.515901 -0.168002 0.840012 
-47.1551 34.6956 -76.3067 45 41 57 0.545446 0.140426 0.826299 
-48.1533 36.4457 -74.5014 85 100 91 -0.189332 0.929828 0.315553 
-48.2281 37.0921 -75.7413 73 88 78 0.36465 0.349264 0.86316 
-49.2402 35.0425 -75.2558 159 160 165 0.682834 0.182601 0.707386 
-47.2355 35.3323 -76.1873 71 76 91 0.687196 -0.0799065 0.722064 
-47.096 35.6514 -76.2835 54 58 72 0.691356 -0.0210352 0.722208 
-48.458 36.8086 -75.5728 88 108 93 0.245854 0.432884 0.867276 
-47.9804 35.7671 -75.6367 48 60 59 0.657491 -0.182381 0.731056 
-49.7227 36.4126 -75.0918 106 109 115 0.539069 0.172682 0.82437 
-45.5463 35.2767 -77.2239 49 48 55 0.328112 0.0583598 0.942835 
-49.3379 35.0021 -75.157 99 98 105 0.67809 0.117219 0.725571 
-47.5752 35.7772 -75.9386 40 53 52 0.497996 -0.119808 0.858863 
-48.4874 33.9875 -75.4328 134 135 142 0.527748 0.232332 0.817009 
-45.2776 36.3636 -77.5193 110 104 115 0.503269 0.167756 0.84769 
-48.5084 35.8089 -75.2214 51 54 55 -0.0354028 -0.712305 0.700976 
-47.6329 35.8133 -73.6237 100 119 108 0.430843 0.450353 0.782021 
-48.1816 36.521 -75.3238 44 55 45 -0.0121297 0.861212 0.508101 
-47.8927 36.5812 -75.2303 49 63 52 -0.125308 0.899687 0.418164 
-46.0112 35.1069 -76.9955 131 129 139 0.375114 -0.00127157 0.926978 
-48.2568 34.9892 -75.694 107 103 114 0.254713 0.0639919 0.964897 
-46.3595 36.8177 -76.9574 129 124 134 0.442471 0.00656485 0.896759 
-45.6027 37.7334 -77.4817 97 93 105 0.568854 0.163602 0.806002 
-49.693 36.1718 -74.9132 91 94 98 0.195806 -0.732346 0.652173 
-45.467 37.2713 -77.4671 68 62 75 0.449931 0.385884 0.805392 
-49.0017 35.8149 -75.2889 116 122 121 0.531989 0.120973 0.838065 
-48.4352 36.1844 -74.2015 118 130 125 -0.215188 0.939884 0.265167 
-45.0513 36.2664 -77.5173 91 85 98 0.401483 0.184074 0.897178 
-47.7306 34.766 -75.9638 147 142 156 0.338506 0.109239 0.934602 
-47.6948 36.2066 -76.1392 38 49 52 0.328679 -0.590975 0.736695 
-48.5356 36.6227 -75.4112 135 145 135 0.00134286 0.852716 0.522373 
-47.6233 36.233 -75.8493 32 46 43 0.325165 0.457116 0.827836 
-49.5067 33.8058 -74.8917 165 162 168 0.344535 -0.133147 0.929283 
-48.9559 34.5688 -75.275 81 77 89 0.607289 0.0436797 0.79328 
-49.3431 34.5527 -75.018 137 135 143 0.544394 0.11822 0.830457 
-49.2835 34.5186 -75.0596 166 163 171 0.546654 0.124573 0.828041 
-47.0645 37.9266 -76.5185 151 149 156 0.280549 -0.14363 0.949033 
-48.92 34.6887 -75.333 120 116 127 0.647074 -0.0857918 0.757585 
-47.3667 37.3018 -76.3779 151 151 147 0.213569 -0.0753046 0.974021 
-49.1855 35.0205 -75.3052 138 136 148 0.623028 0.020907 0.78192 
-46.368 34.8232 -76.8101 107 104 118 0.470731 0.228554 0.852159 
-45.4209 36.7119 -77.3525 99 94 105 0.186312 0.0462813 0.9814 
-49.5459 34.8879 -75.0169 67 64 76 0.53399 0.0930546 0.840354 
-47.1412 37.7594 -76.4569 165 162 169 0.305553 -0.160313 0.938582 
-48.0279 37.7527 -76.1515 123 120 125 0.420638 -0.166232 0.891869 
-46.1041 35.0592 -76.9567 81 80 90 0.372926 -0.00127278 0.92786 
-48.5139 35.13 -75.5378 49 45 57 0.668315 -0.0892062 0.73851 
-46.9664 35.6057 -76.2971 41 43 59 0.54457 -0.20593 0.813041 
-44.8868 35.3961 -77.5176 93 87 100 0.515913 0.126435 0.847259 
-44.7699 35.2094 -77.583 96 90 103 0.520541 -0.194637 0.831357 
-45.8868 35.9462 -77.0253 117 113 126 0.363818 -0.0323681 0.930908 
-45.5905 36.652 -77.3256 96 91 103 0.344795 0.121291 0.930809 
-48.5355 36.586 -75.3995 137 146 138 0.0522256 0.808791 0.585773 
-47.5358 36.1445 -75.6685 32 46 44 0.632855 0.17232 0.754851 
-49.0425 35.1177 -75.344 117 124 124 0.720061 0.114319 0.684429 
-46.7781 35.2513 -76.5472 55 54 72 0.501226 0.122779 0.856562 
-45.8225 38.6922 -77.5145 90 86 99 0.358323 0.149185 0.921601 
-47.6553 34.4724 -75.993 177 180 188 0.502939 0.244549 0.829004 
-47.4166 37.1258 -76.4515 166 170 160 0.292461 -0.380351 0.877383 
-47.794 37.2487 -76.1181 124 129 119 0.55135 0.0783572 0.830586 
-48.935 34.1439 -75.1951 141 139 147 0.554928 -0.0178125 0.831707 
-48.2972 37.731 -75.945 156 156 161 0.502794 0.0626751 0.862131 
-45.781 35.1028 -77.0952 63 63 73 0.381623 -0.0488583 0.923026 
-49.2223 35.0523 -75.2193 165 166 172 0.708066 0.0738474 0.702274 
-46.8199 38.2958 -76.8081 117 114 125 0.550838 0.311343 0.774366 
-46.894 36.2106 -76.3651 61 66 74 0.46271 0.312134 0.829742 
-46.7854 34.7793 -76.4281 96 91 108 0.403947 -0.472082 0.783559 
-48.3321 35.027 -75.5098 77 75 86 0.727287 -0.392374 0.563114 
-47.5465 35.8021 -73.6281 113 134 122 0.584646 0.170711 0.793125 
-45.8444 36.2423 -77.0967 133 129 142 0.630423 -0.0265588 0.775797 
-48.6288 36.6994 -75.4524 124 136 125 0.388603 0.653184 0.649876 
-47.7774 37.593 -76.2046 135 135 135 0.513034 0.280835 0.811127 
-48.5775 36.8974 -75.5667 127 139 130 0.219925 0.810494 0.542893 
-45.5851 34.8694 -76.958 148 143 156 0.437945 0.13552 0.888729 
-49.4728 37.2032 -75.3766 164 163 169 0.502288 0.187421 0.844144 
-47.5327 37.1237 -76.3788 116 123 109 0.282368 -0.152668 0.94708 
-49.0409 35.3225 -75.2807 88 88 97 0.28249 0.0812642 0.955822 
-48.4079 35.0766 -75.666 54 51 63 0.469608 0.0794292 0.879295 
-46.6189 37.3853 -76.8251 130 122 132 0.592701 0.0975699 0.799491 
-47.6706 37.0151 -76.0733 126 132 115 0.0889478 0.637217 0.765535 
-46.148 35.7052 -76.8562 134 131 146 0.537712 0.0603697 0.840965 
-46.7524 35.3443 -76.5385 41 40 58 0.506922 -0.255786 0.823167 
-47.0045 35.5439 -76.355 44 45 63 0.553028 -0.0178396 0.832972 
-49.1022 35.6594 -75.2438 145 147 149 0.433546 0.5764 0.692677 
-45.1576 35.4107 -77.4664 58 53 65 0.549447 -0.090379 0.830626 
-45.2531 35.1087 -77.4146 64 59 73 0.545829 0.230392 0.8056 
-46.1795 38.3932 -77.1822 126 125 135 0.274322 -0.25158 0.928146 
-49.1913 34.7462 -75.2166 144 140 153 0.676863 0.114045 0.727221 
-46.0086 34.7976 -76.9517 68 66 77 0.352305 0.112901 0.929051 
-48.5335 37.7941 -75.9476 188 184 193 0.448485 0.0819215 0.890028 
-48.8747 34.0601 -75.1995 146 143 151 0.473692 0.0975664 0.87527 
-47.5358 34.8765 -76.1777 126 133 143 0.471948 0.229145 0.851327 
-46.0395 38.3912 -77.3827 95 92 105 0.576407 0.228388 0.784598 
-49.3927 35.5898 -74.8731 62 62 68 0.581982 0.193994 0.789724 
-47.4224 36.89 -76.1183 118 127 107 0.48144 0.37839 0.790593 
-47.1264 37.1926 -76.4612 114 112 113 0.287599 -0.347205 0.8926 
-48.5003 35.3006 -75.6569 56 60 64 0.469861 0.0679151 0.880124 
-47.9085 37.2665 -76.0437 118 123 116 0.553449 0.0754057 0.829462 
-47.7141 35.708 -73.5739 95 111 103 0.448164 0.422278 0.787928 
-47.6024 37.32 -76.2988 156 161 152 0.225495 -0.0628428 0.972215 
-45.2861 35.3754 -77.4279 70 64 77 0.480003 -0.233144 0.845719 
-46.3485 37.9757 -77.0578 68 66 76 0.344001 -0.154591 0.926156 
-48.894 34.497 -75.1857 120 121 128 0.51877 0.208421 0.829119 
-46.8802 36.7795 -76.5617 128 132 126 0.227254 -0.551903 0.802346 
-47.2801 35.8794 -76.1055 36 42 54 0.632574 -0.272469 0.72499 
-47.675 37.6958 -76.4128 137 133 138 0.289299 0.0843247 0.953518 
-47.4559 35.3921 -76.0597 52 52 70 0.56099 -0.319877 0.763525 
-48.9045 36.1736 -75.2173 144 146 146 0.262251 0.789894 0.554339 
-47.056 37.1161 -76.4647 129 124 127 0.533282 0.222841 0.816059 
-47.095 35.5898 -76.3907 35 39 55 0.252322 0.0665328 0.965353 
-49.3685 34.993 -75.0665 126 125 135 0.571072 0.052172 0.819241 
-46.086 34.7539 -76.833 91 88 101 0.471004 0.212177 0.856234 
-47.9014 35.4052 -75.9743 44 43 58 0.548491 -0.195998 0.812861 
-49.09 34.4578 -75.1234 56 55 62 0.465206 0.248618 0.849572 
-46.5793 35.7295 -76.5365 55 53 69 0.599775 -0.00411745 0.800158 
-45.9136 37.5276 -77.283 67 63 74 0.488917 0.116136 0.864565 
-49.1177 36.5643 -75.2065 125 139 132 0.521683 0.130055 0.843168 
-47.7372 36.6579 -75.6972 60 83 65 0.428667 0.471045 0.770948 
-46.3133 37.0531 -77.1547 127 122 134 0.368995 -0.461643 0.806677 
-48.1751 35.5033 -75.0412 50 55 55 0.706422 -0.362226 0.60808 
-49.8156 35.2742 -74.7166 135 133 141 0.614207 -0.314358 0.723829 
-46.4654 38.0581 -77.0272 119 116 127 0.517095 0.319803 0.793939 
-47.5691 37.1241 -76.1713 131 132 120 0.212356 0.480437 0.850932 
-47.4593 37.0437 -76.1475 147 150 136 0.220022 0.487083 0.845187 
-47.501 36.9583 -76.1963 130 137 120 0.441898 0.381276 0.812007 
-45.1459 36.025 -77.4523 137 130 142 0.485836 0.219459 0.846051 
-49.6885 36.6061 -75.0766 153 156 160 0.3629 -0.561437 0.743701 
-48.5524 36.4608 -75.3244 139 146 139 0.355683 0.550578 0.755217 
-45.2998 36.1748 -77.3589 143 136 148 0.511258 0.171413 0.84216 
-49.1851 35.8723 -75.1703 107 114 121 0.552207 0.11219 0.826124 
-46.804 35.9623 -76.5302 61 63 78 0.491608 0.0949215 0.865628 
-46.4191 37.1724 -77.2083 99 93 105 0.339463 -0.605837 0.719532 
-48.2151 34.8876 -75.7094 119 115 126 0.234953 0.0528953 0.970566 
-48.9068 35.3181 -75.3004 132 129 138 0.290376 0.00612608 0.956893 
-47.2797 36.6419 -74.1286 86 108 95 0.434812 0.399513 0.807049 
-49.4505 37.5197 -75.426 156 156 163 0.210696 0.046955 0.976423 
-46.7968 37.7596 -76.8061 71 67 77 0.52446 0.158972 0.836462 
-47.9535 37.2 -75.9519 94 102 91 0.375981 0.326874 0.867059 
-47.6862 37.1083 -76.043 142 152 134 0.46101 0.275989 0.843386 
-45.2482 35.2903 -77.3748 54 50 62 0.440763 -0.145007 0.885833 
-46.6558 36.8783 -76.747 114 109 115 0.681984 0.199492 0.703634 
-45.7086 35.1554 -76.9773 92 89 101 0.453838 0.0879748 0.886731 
-45.2163 36.7929 -77.5081 75 69 82 0.386645 0.307176 0.869568 
-49.3674 35.253 -75.1108 70 68 79 0.411053 -0.553023 0.724708 
-47.3549 36.2194 -75.9096 47 54 55 0.445421 0.397181 0.802401 
-47.438 35.8197 -76.0539 37 46 52 0.462574 0.094202 0.881562 
-49.0104 37.3754 -75.2236 135 136 141 0.167542 0.0831683 0.982351 
-45.5575 36.8835 -77.3569 68 65 74 0.365472 -0.101897 0.925228 
-47.681 34.826 -76.0837 169 174 186 0.476388 0.21929 0.851449 
-47.5773 35.0572 -76.1341 92 100 111 0.467422 0.23904 0.851103 
-48.2065 37.3851 -76.027 128 131 130 0.423034 0.191756 0.885591 
-47.6586 34.6713 -75.9852 150 154 163 0.488544 0.179677 0.853839 
-47.6175 34.7199 -76.0856 140 139 151 0.291844 0.205268 0.93418 
-47.4182 37.0321 -76.2422 132 136 123 0.529277 0.246789 0.811764 
-49.1807 34.8955 -75.2774 119 122 126 0.672999 0.136398 0.726958 
-46.2393 36.134 -76.7841 121 118 132 0.590427 0.135337 0.795663 
-47.642 35.8581 -75.8682 34 42 48 0.740312 -0.130116 0.659551 
-49.9548 35.8192 -74.5206 131 129 132 0.596684 0.278452 0.752617 
-47.6502 37.0917 -76.0979 125 130 116 0.532243 0.236038 0.813021 
-45.9106 36.9612 -77.2632 113 109 121 0.491608 0.0949215 0.865628 
-49.161 36.9377 -75.4019 142 147 149 0.456133 0.286049 0.842686 
-46.8874 37.0852 -76.6123 82 80 85 0.618608 -0.0208519 0.785423 
-47.3179 37.0571 -76.3306 113 119 110 0.496847 0.272565 0.823925 
-48.8283 36.862 -75.5202 122 128 125 0.40422 0.22358 0.886915 
-49.6329 37.412 -75.2823 114 113 121 0.546654 0.124573 0.828041 
-48.6247 37.5852 -75.8548 93 93 98 0.483166 0.118999 0.867404 
-45.8549 35.4528 -77.0929 113 110 121 0.490725 -0.551019 0.674957 
-48.1115 34.3312 -75.6861 95 95 104 0.476636 0.140528 0.867796 
-48.048 34.5515 -75.8042 92 97 103 0.528504 0.130296 0.838872 
-48.7336 33.9561 -75.3064 98 97 104 0.482871 0.427218 0.764409 
-45.5595 36.6857 -77.3048 131 126 137 0.200916 0.054139 0.978111 
-46.8382 36.1769 -76.4235 105 108 118 0.728175 -0.0677707 0.682033 
-49.1286 34.5013 -75.0503 91 89 97 0.476216 0.330662 0.814789 
-47.9606 35.3411 -75.9305 50 45 60 0.710643 -0.268677 0.65023 
-47.5606 35.9429 -75.9465 35 44 50 0.616611 -0.304281 0.726088 
-45.5176 35.4467 -77.2055 51 48 56 0.371735 -0.159719 0.914496 
-47.4441 36.5811 -74.1388 74 98 83 -0.227313 0.922118 0.313091 
-45.7818 36.5153 -77.1663 125 122 132 0.260853 0.110311 0.959055 
-45.1324 35.6087 -77.4613 66 61 72 0.457354 -0.204096 0.865547 
-50.101 36.0162 -74.6374 117 115 116 0.325161 0.593703 0.736062 
-47.4062 36.0731 -76.2034 43 53 57 0.432254 0.0727285 0.898814 
-49.8814 34.7152 -74.7525 145 140 150 0.544204 0.121096 0.830167 
-47.4012 36.2447 -76.0351 65 76 71 0.471484 0.0942967 0.876819 
-45.1852 35.2092 -77.3971 65 59 72 0.417216 -0.086748 0.904657 
-49.7566 35.34 -74.7147 149 148 154 0.603634 0.205328 0.770367 
-48.1861 34.1074 -75.5895 112 114 120 0.496066 0.227427 0.837971 
-44.8318 35.3658 -77.5878 66 61 73 0.489623 -0.0425162 0.870897 
-47.5159 36.7987 -75.9396 110 124 103 0.415784 0.517676 0.747754 
-50.0376 35.5371 -74.5814 127 126 128 0.531855 0.175287 0.828495 
-46.8302 36.5743 -76.567 89 90 90 0.411752 0.134421 0.901327 
-49.4137 35.7779 -74.98 102 101 108 0.345856 0.526023 0.77697 
-47.9429 35.4353 -75.9586 52 50 65 0.723303 -0.265476 0.63746 
-46.5014 36.4984 -76.7495 114 112 121 0.657133 0.123678 0.743559 
-46.8318 37.0366 -76.6259 108 105 111 0.556163 0.269416 0.786191 
-49.2923 34.8519 -75.1743 130 129 136 0.679552 0.117472 0.724161 
-50.2083 36.9693 -74.8366 78 77 83 0.575979 0.151101 0.803378 
-47.5448 36.4022 -75.9078 46 66 55 0.330885 -0.576224 0.747316 
-49.0402 34.6325 -75.4398 79 75 87 0.360941 -0.423987 0.830636 
-49.3699 37.4365 -75.4191 126 125 132 0.182356 0.0411772 0.98237 
-50.2744 37.2186 -75.0269 164 162 168 0.310947 0.0632215 0.948322 
-48.0907 35.5388 -75.8528 39 38 51 0.53874 -0.182598 0.822446 
-49.927 34.95 -74.7929 163 159 169 0.443204 -0.633865 0.633865 
-47.8173 35.7689 -75.7782 31 36 45 0.756798 -0.226259 0.61324 
-48.2386 34.2098 -75.6822 63 58 69 0.477631 0.0622997 0.876349 
-49.3996 37.038 -75.3639 164 165 170 0.207911 0.0595769 0.976332 
-46.2615 37.0241 -77.0881 126 120 131 0.577865 0.131534 0.805463 
-44.9957 35.5728 -77.4172 109 103 114 0.484478 0.112902 0.867487 
-50.0112 37.3014 -75.0272 139 137 145 0.536066 0.1462 0.83142 
-48.206 34.0939 -75.5621 105 107 113 0.56887 0.124946 0.812881 
-50.1352 36.1605 -74.4813 132 128 130 0.241344 0.692485 0.679866 
-45.4889 35.4424 -76.9794 85 83 91 0.553269 0.153603 0.818718 
-47.6129 37.5807 -76.3693 122 119 121 0.230717 -0.0629227 0.970984 
-49.531 34.8349 -74.9638 66 62 72 0.536423 0.0963548 0.838431 
-49.1047 35.8052 -75.1554 154 157 159 0.528066 0.350429 0.773528 
-48.6796 34.4913 -75.4176 133 129 141 0.535108 0.133411 0.834183 
-48.215 34.3254 -75.6933 86 87 94 0.472229 0.34185 0.812489 
-45.9364 37.2886 -77.2779 99 94 104 0.368685 -0.347089 0.862323 
-49.0536 34.4291 -75.1803 85 85 91 0.513212 0.25273 0.820208 
-46.4866 37.3044 -76.8825 100 93 103 0.444366 0.310277 0.840397 
-48.6807 34.9729 -75.3689 94 93 101 0.365822 -0.152776 0.91806 
-48.6725 37.6506 -75.4912 98 100 104 0.280935 0.195132 0.93968 
-45.8341 37.8547 -77.3676 98 94 107 0.568854 0.163602 0.806002 
-48.4719 35.2166 -75.6464 71 68 77 0.348077 -0.508481 0.787584 
-49.1325 34.8068 -75.1556 171 172 178 0.36744 0.0539966 0.928478 
-46.8135 35.1411 -76.5361 47 45 63 0.518339 0.114063 0.847534 
-49.8199 35.6177 -74.6108 178 176 180 0.470864 -0.198809 0.859513 
-47.3288 37.6337 -76.4201 143 137 143 0.288438 0.300151 0.909238 
-48.9654 34.6981 -75.3492 103 100 111 0.642253 0.0295127 0.765925 
-45.6346 37.5884 -77.4266 100 95 108 0.639484 0.182491 0.746831 
-45.7026 37.3979 -77.386 109 103 115 0.324998 -0.0582666 0.943918 
-48.9973 35.9153 -75.1312 102 109 106 0.436417 -0.277163 0.855991 
-48.6938 34.0983 -75.3333 95 93 102 0.50509 0.262647 0.822132 
-49.3001 35.5297 -75.1221 93 96 102 0.280122 -0.511731 0.812197 
-47.3284 36.079 -76.0803 44 54 55 0.58972 0.0850696 0.803115 
-47.6252 37.5696 -76.2803 117 113 115 0.406617 0.0978638 0.908342 
-47.4614 35.9886 -75.7998 34 44 48 0.608872 -0.30042 0.734181 
-48.7824 34.2156 -75.2343 118 114 124 0.340119 0.11247 0.933633 
-47.648 35.0536 -76.0709 59 66 78 0.528659 0.172226 0.831178 
-47.5599 35.2594 -76.1194 36 45 55 0.508265 0.238009 0.827658 
-47.2343 37.1867 -76.3784 131 132 130 0.442838 0.40419 0.800328 
-47.162 36.3379 -76.1762 62 69 66 0.591564 0.0553262 0.804357 
-49.6707 34.0518 -74.7229 148 142 152 0.515556 0.221827 0.827644 
-46.7772 34.6651 -76.3612 158 152 169 0.201815 -0.128197 0.970998 
-45.6609 34.9095 -77.1585 93 90 104 0.444701 0.0934011 0.890796 
-47.2964 35.7121 -76.2471 54 57 73 0.545692 -0.182905 0.817782 
-45.9477 36.3512 -77.0081 52 47 61 0.444327 0.216927 0.869205 
-46.2104 37.9844 -77.0975 90 84 96 0.564473 0.0785975 0.821701 
-45.9425 36.1159 -77.0094 102 97 110 0.369854 0.00381292 0.929082 
-49.0648 35.0458 -75.3132 130 128 139 0.613745 -0.0041191 0.789493 
-46.4462 38.402 -77.0964 99 96 109 0.554971 0.308673 0.772482 
-48.295 37.0086 -75.6985 43 60 49 0.343561 0.533891 0.77261 
-45.5423 34.8124 -77.1228 131 128 140 0.326414 0.108805 0.938944 
-49.0179 35.3622 -75.1982 104 102 112 0.376423 -0.462921 0.802502 
-49.1896 35.7702 -74.8908 97 107 106 0.656706 -0.398655 0.640165 
-45.4081 36.806 -77.4665 107 102 115 0.472862 0.0855922 0.87697 
-47.6086 35.2293 -76.0637 38 47 56 0.548901 0.12149 0.827011 
-45.7528 37.8712 -77.3827 103 97 110 0.42898 0.0957917 0.89822 
-50.3009 36.8689 -74.7594 86 84 88 0.40974 0.429022 0.805018 
-47.4357 36.053 -75.9699 41 51 52 0.495187 0.0568702 0.866923 
-47.9743 37.8436 -76.0668 131 130 136 0.549044 0.269016 0.791316 
-48.9282 35.0307 -75.2634 124 132 135 0.385153 0.0599719 0.920902 
-48.1006 36.7804 -75.6787 92 114 98 0.412625 0.233871 0.880366 
-47.5738 35.8521 -73.6743 86 108 94 0.58564 -0.0910996 0.805436 
-45.2513 35.9162 -77.3154 69 65 73 0.375344 0.126038 0.918276 
-48.5597 36.8373 -75.4903 80 100 87 0.215369 0.596525 0.773158 
-48.8597 35.8874 -75.2764 118 122 121 0.363335 -0.276613 0.889648 
-47.3227 36.6891 -76.0165 111 122 104 0.400554 0.37228 0.837236 
-48.545 35.1957 -75.5667 43 42 52 0.580095 -0.0820482 0.810406 
-48.4009 34.2439 -75.5741 141 141 148 0.451126 0.39333 0.80111 
-45.6412 36.0699 -77.1572 87 83 92 0.506211 -0.217382 0.834563 
-45.0944 36.092 -77.4177 101 98 106 0.383697 0.13255 0.913897 
-46.2606 37.006 -77.0208 88 86 94 0.318445 -0.0137368 0.947842 
-45.0134 36.1689 -77.5226 86 82 93 0.580268 0.125503 0.804697 
-47.7917 34.8455 -75.9191 111 118 125 0.453756 0.27533 0.847525 
-48.2595 34.2722 -75.6026 85 86 93 0.563567 0.144237 0.81338 
-49.6793 36.7982 -75.1774 151 154 159 0.490495 0.186358 0.851285 
-49.4166 34.1779 -75.0357 121 117 127 0.432637 0.369247 0.822485 
-45.9244 36.6217 -77.1796 114 110 123 0.491739 0.0921124 0.865857 
-49.0253 34.7573 -75.1686 84 86 92 0.360512 0.0731666 0.929881 
-47.8487 34.8673 -75.6907 128 125 138 0.725463 -0.339199 0.598872 
-47.5251 35.613 -76.1621 43 52 62 0.541 0.127553 0.831293 
-48.3931 34.9313 -75.6341 107 106 114 0.535316 0.130529 0.834506 
-48.0062 34.7141 -75.8163 92 103 103 0.466179 0.0853961 0.88056 
-47.1543 36.1793 -76.221 44 52 57 0.534721 0.0122455 0.84494 
-49.0656 35.1261 -75.2569 147 151 155 0.155948 0.413477 0.89706 
-47.7446 35.0606 -76.0697 45 52 63 0.454638 0.193999 0.869292 
-49.6403 34.6872 -74.9229 103 98 109 0.26863 0.0257591 0.962899 
-46.6013 35.6315 -76.5973 57 57 74 0.540746 0.0489047 0.839763 
-48.7603 34.8424 -75.3174 159 165 170 0.384572 0.0683386 0.920562 
-48.4323 34.2048 -75.5666 124 119 132 0.531706 0.133293 0.836374 
-45.439 35.4998 -77.3072 85 80 91 0.334669 -0.132501 0.932974 
-47.716 35.0106 -75.9608 73 67 86 0.353197 0.113187 0.928677 
-47.788 35.0533 -75.9402 92 101 107 0.577865 0.131534 0.805463 
-50.3698 36.682 -74.6931 159 156 159 0.616476 0.103966 0.780479 
-46.0423 36.6047 -76.998 92 85 97 0.555949 0.217143 0.802353 
-48.9161 34.5411 -75.226 78 79 87 0.528869 0.195484 0.825884 
-48.8707 34.884 -75.2598 170 175 180 0.354109 0.0729439 0.932355 
-47.6976 35.2276 -76.1004 49 46 64 0.556845 0.072632 0.827435 
-45.1515 36.3852 -77.5063 119 112 124 0.406726 0.0951324 0.908584 
-46.4977 35.7748 -76.5666 59 59 75 0.554155 -0.248199 0.79455 
-45.2489 37.2344 -77.5192 80 76 87 0.528597 0.0931134 0.84375 
-46.2908 37.562 -77.0846 101 96 108 0.758669 -0.267672 0.593947 
-47.8801 34.7199 -75.8943 103 112 115 0.480488 0.0915886 0.872206 
-48.0991 34.7237 -75.7742 99 103 111 0.478316 0.0917125 0.873386 
-49.6788 35.5042 -74.748 111 110 114 0.457381 -0.217444 0.862276 
-45.8295 35.1083 -76.8891 110 108 120 0.460525 0.0881856 0.883256 
-47.92 34.8697 -75.8691 128 131 141 0.488544 0.179677 0.853839 
-48.3705 34.1965 -75.4563 120 120 128 0.557522 0.159933 0.814611 
-49.7982 34.2371 -74.7923 79 73 84 0.506771 0.228124 0.83135 
-47.481 34.9144 -76.1793 95 93 111 0.332563 0.147652 0.931451 
-46.5018 35.9071 -76.6913 73 73 88 0.525962 0.0719144 0.847462 
-47.9036 35.0034 -75.8896 95 104 109 0.45857 0.265326 0.848125 
-47.8265 36.3746 -75.6924 37 54 44 0.707386 -0.182601 0.682834 
-48.8026 34.685 -75.2546 74 76 84 0.354177 0.0703047 0.932532 
-48.8935 34.9815 -75.2267 139 144 150 0.330373 0.0665969 0.941498 
-48.1084 34.6303 -75.6993 103 112 113 0.466065 0.0881745 0.880346 
-46.9105 38.0616 -76.6851 130 126 136 0.530609 0.130094 0.837573 
-49.6391 35.7139 -74.8901 120 121 126 0.182753 -0.542218 0.820123 
-48.0816 34.8095 -75.8606 115 112 124 0.530293 0.149191 0.834584 
-46.3755 36.4679 -76.8967 120 118 127 0.35637 0.116059 0.927109 
-48.7638 35.0263 -75.2998 150 159 159 0.343774 0.0588206 0.937208 
-47.8619 35.3931 -75.7938 60 58 73 0.740607 -0.199454 0.641653 
-46.9007 35.5427 -76.4132 38 39 57 0.392239 0.082791 0.91613 
-49.5537 36.3513 -74.9772 112 118 120 0.25546 -0.159161 0.953629 
-48.4854 34.3765 -75.5405 131 130 139 0.446815 0.389162 0.805549 
-48.2552 35.3994 -75.7062 47 44 53 0.7125 -0.460052 0.529808 
-47.4035 35.0044 -76.2795 49 46 65 0.463597 0.214545 0.859679 
-47.4932 36.8188 -75.8861 100 115 92 0.45399 0.411984 0.79004 
-48.4702 34.4914 -75.4378 96 100 105 0.56887 0.124946 0.812881 
-44.9917 35.714 -77.549 133 128 139 0.376684 0.0710472 0.923613 
-47.2252 35.7291 -73.9287 78 98 89 0.570985 -0.0549838 0.819117 
-48.5059 34.6268 -75.4268 82 86 91 0.570232 0.125245 0.81188 
-47.4278 36.0144 -73.747 109 132 119 0.580303 0.094064 0.80895 
-48.3843 34.5294 -75.5798 70 73 79 0.461699 0.0850865 0.882946 
-45.7311 36.5986 -77.3143 103 99 111 0.37495 0.0378869 0.92627 
-48.4327 34.7822 -75.5511 71 79 83 0.4797 -0.0283766 0.876973 
-45.2803 36.8109 -77.436 107 102 115 0.52579 0.145807 0.838024 
-48.5554 34.7314 -75.4191 91 98 100 0.555423 0.143669 0.819063 
-46.6 35.5294 -76.5362 62 61 78 0.572985 -0.0971898 0.813783 
-47.002 37.4024 -76.5043 91 84 91 0.557592 0.0999321 0.824078 
-49.2327 35.4843 -75.1171 133 135 138 0.0654963 0.491919 0.868174 
-48.775 35.2162 -75.4784 97 115 105 0.696078 0.175932 0.696078 
-46.7864 35.0651 -76.4194 57 54 73 0.235024 -0.00354307 0.971983 
-49.8578 35.3 -74.6724 122 119 126 0.525225 -0.525225 0.669536 
-46.8844 37.9134 -76.7304 44 40 50 0.523403 0.155686 0.837741 
-48.638 34.5931 -75.3371 156 156 165 0.571262 0.118952 0.812102 
-48.3315 34.9193 -75.6034 94 106 105 0.466065 0.0881745 0.880346 
-48.1806 36.7259 -75.5267 63 84 68 0.339124 0.446382 0.828093 
-49.1219 34.3233 -75.0355 97 97 105 0.402153 -0.490073 0.773371 
-46.5508 38.389 -77.1405 103 102 114 0.527127 0.270602 0.80555 
-47.4401 34.7929 -76.1073 73 70 87 0.487845 0.209939 0.847309 
-47.7644 36.9776 -75.8927 128 140 120 0.189034 0.533833 0.82419 
-47.4396 35.9717 -75.9474 33 42 48 0.569924 -0.0728474 0.818462 
-49.6484 37.268 -75.3852 132 131 137 0.579051 -0.163939 0.798639 
-46.7044 36.1405 -76.4987 66 68 80 0.431249 0.269721 0.860973 
-49.5604 36.9748 -75.3044 112 112 118 0.452893 0.282865 0.845503 
-45.6849 38.4718 -77.6499 100 101 108 0.196898 0.297441 0.934216 
-45.7821 37.1973 -77.268 99 95 105 0.283467 -0.466249 0.838009 
-47.4591 35.5107 -76.115 46 47 64 0.715562 -0.240618 0.655801 
-45.7369 38.5703 -77.662 81 82 89 0.202226 0.288696 0.93582 
-48.5396 34.4809 -75.5587 84 80 92 0.541948 0.114783 0.832537 
-45.417 36.0603 -77.2741 105 101 109 0.376261 0.102617 0.920814 
-49.0723 36.4387 -75.3187 165 172 172 0.0806969 -0.270271 0.959397 
-45.7858 38.6753 -77.6494 122 124 131 0.242791 0.285386 0.92715 
-49.111 36.3725 -75.3176 136 145 144 0.161104 -0.280239 0.946315 
-49.7089 37.3759 -75.2434 94 89 100 0.515119 0.16181 0.841707 
-46.0454 38.5798 -77.3558 134 135 142 0.340119 0.11247 0.933633 
-46.1369 38.5373 -77.2983 140 140 148 0.351635 0.09835 0.930957 
-46.2292 38.4933 -77.2464 166 166 174 0.444383 -0.142375 0.884451 
-46.9109 36.0093 -76.3813 35 42 50 0.367925 0.110788 0.923232 
-46.1853 38.3789 -77.294 129 129 136 0.369191 0.0569005 0.92761 
-46.3967 35.2126 -76.7593 38 37 50 0.324231 0.100071 0.94067 
-47.5244 34.4988 -76.0727 120 116 131 0.517294 0.101739 0.849738 
-45.8289 35.7279 -77.033 51 49 58 0.470302 -0.337288 0.815508 
-48.1868 35.2382 -75.3909 80 102 90 0.588244 0.138498 0.796735 
-50.0981 37.0578 -74.9383 130 125 135 0.381813 0.439325 0.81315 
-48.1192 34.9944 -75.7275 117 113 126 0.698378 -0.401196 0.592714 
-46.3696 38.2914 -77.1882 152 150 159 0.398582 0.00386972 0.917125 
-46.5183 38.3372 -77.179 129 130 138 0.374103 0.0625725 0.925274 
-46.6464 34.9166 -76.5497 51 48 65 0.48155 0.00666966 0.876393 
-45.243 36.9432 -77.3985 133 126 139 0.253416 0.0743857 0.964493 
-49.7108 34.0627 -74.8276 97 91 102 0.356516 -0.183229 0.916146 
-48.8039 36.6141 -75.2639 110 114 112 0.41973 0.317508 0.850303 
-47.8173 34.7186 -75.9029 118 116 128 0.341751 0.109414 0.933399 
-46.3313 37.2218 -77.0006 95 91 99 0.357753 -0.486095 0.797324 
-46.4457 35.3184 -76.7652 82 82 95 0.320229 0.0996563 0.942084 
-48.776 37.4864 -75.762 141 139 146 0.46387 0.0882894 0.881493 
-47.4242 36.2458 -76.1682 43 59 52 0.237601 -0.449475 0.861115 
-46.9551 35.9282 -76.4073 80 83 98 0.526385 0.0960976 0.844798 
-50.2253 36.2405 -74.6059 157 154 155 0.419329 0.478068 0.771761 
-47.1739 36.3918 -76.0716 64 79 71 0.706618 -0.073999 0.703716 
-45.1045 36.3026 -77.4836 106 100 113 0.404637 0.277335 0.871409 
-47.2487 37.959 -76.4716 173 169 177 0.316612 -0.328616 0.889814 
-46.5088 35.8037 -76.627 65 62 78 0.634035 -0.129791 0.762334 
-45.2079 35.3923 -77.3697 62 58 70 0.553013 0.156513 0.81834 
-45.9074 36.5966 -77.0352 152 145 158 0.517619 0.316942 0.794744 
-47.4999 38.0171 -76.3904 116 110 119 0.498007 0.326171 0.803494 
-46.2731 35.5111 -76.7503 89 86 100 0.628881 0.00137611 0.7775 
-49.2932 36.3135 -75.1578 171 170 177 0.504629 0.122904 0.854543 
-45.4225 36.3179 -77.3338 81 77 85 0.373693 0.108138 0.921227 
-45.625 38.2342 -77.4947 124 120 133 0.620171 0.250909 0.743258 
-47.7607 34.6667 -75.9885 123 119 133 0.461339 0.293579 0.837244 
-48.9779 36.808 -75.4342 140 141 144 0.511876 0.266051 0.816823 
-47.6821 36.4433 -73.8463 84 110 94 0.468877 0.413715 0.780381 
-48.5072 34.6281 -75.6457 102 98 107 0.386421 -0.529902 0.754906 
-49.1017 36.4117 -75.2803 149 157 157 0.236983 -0.448306 0.861894 
-47.7938 37.3122 -76.1143 144 141 137 0.495708 0.315163 0.809287 
-47.5111 37.4826 -76.2572 116 110 112 0.501741 0.314973 0.805635 
-49.9218 36.0369 -74.6976 73 72 76 0.559898 0.207086 0.802265 
-47.8585 35.0721 -75.9246 114 109 124 0.353087 0.115878 0.928387 
-47.0882 35.9661 -76.204 40 46 57 0.525267 0.11142 0.843611 
-46.3003 38.4603 -77.1402 155 154 166 0.554795 0.282929 0.782403 
-48.6356 34.3167 -75.4609 91 87 98 0.529599 0.1335 0.837677 
-49.3867 34.1933 -74.9876 108 104 114 0.478719 0.246242 0.842729 
-50.0476 36.8463 -75.0199 175 176 182 0.584768 0.128797 0.80091 
-47.8536 37.041 -75.953 128 137 121 0.269516 0.395993 0.87781 
-47.8421 37.7606 -76.2186 102 100 105 0.647068 -0.290619 0.704871 
-49.1906 36.4113 -75.2997 150 149 155 0.548109 0.179683 0.816879 
-46.5494 35.5154 -76.6422 53 52 69 0.525959 -0.00946455 0.850457 
-47.8501 35.9278 -73.5455 92 111 99 0.613682 0.0583781 0.787392 
-47.8059 34.9648 -75.909 113 108 124 0.353197 0.113187 0.928677 
-49.432 34.9572 -74.8832 116 113 121 0.280384 -0.0621666 0.957873 
-49.6168 35.0744 -74.7444 153 151 158 0.330519 0.0531422 0.942302 
-50.139 35.9321 -74.8085 108 107 111 0.561079 0.131066 0.81732 
-48.2601 35.9252 -75.4513 51 64 60 0.639283 -0.432309 0.635945 
-45.7111 37.9675 -77.3999 107 101 114 0.497468 0.265006 0.826013 
-47.3024 34.7728 -76.2152 41 46 56 0.486583 0.17304 0.856326 
-47.5315 35.7166 -76.0075 50 55 67 0.537892 0.0122558 0.842925 
-46.3962 34.6928 -76.6554 142 139 152 0.52369 0.346441 0.778284 
-47.167 35.3512 -76.3744 36 36 55 0.509977 0.170984 0.843023 
-47.434 36.3951 -76.0567 49 65 58 0.563567 0.144237 0.81338 
-48.3264 36.6981 -75.5132 95 109 96 0.291119 0.299896 0.908467 
-49.7083 34.7468 -74.8534 105 101 112 0.465908 0.333243 0.819682 
-46.6107 35.0256 -76.6366 66 63 80 0.53296 0.117629 0.837924 
-49.2388 36.6307 -75.2997 161 159 167 0.526379 0.114556 0.842497 
-49.8791 35.9582 -74.6612 97 95 99 0.357582 0.602501 0.713531 
-49.2563 36.2275 -75.2205 135 134 141 0.272719 0.780323 0.562779 
-49.8135 34.5207 -74.8083 76 71 81 0.346727 -0.244318 0.905587 
-49.8597 37.1206 -75.109 111 109 114 0.350363 -0.537654 0.766925 
-46.1182 35.7501 -76.8414 116 112 128 0.620153 0.0705046 0.781306 
-45.9267 35.0611 -76.96 103 100 114 0.467437 -0.16265 0.868935 
-45.9799 37.9118 -77.2732 72 69 81 0.574853 0.147819 0.804794 
-47.5519 35.7333 -75.8627 36 42 52 0.700639 0.209726 0.681997 
-47.3115 35.4635 -76.1327 53 60 72 0.542218 -0.182753 0.820123 
-48.6303 37.7026 -75.78 125 121 129 0.454467 0.165128 0.875324 
-49.8156 35.2384 -74.7358 134 132 140 0.643128 -0.293497 0.70728 
-48.5001 35.3057 -75.4789 70 69 77 0.295546 -0.592689 0.749248 
-47.1229 34.4424 -76.3028 113 109 123 0.35771 -0.199686 0.912233 
-50.0445 36.25 -74.7077 65 67 66 0.269721 -0.431249 0.860973 
-46.1248 37.076 -77.1424 111 105 116 0.584575 0.0851603 0.806858 
-45.9781 35.6869 -77.0027 50 49 59 0.46458 -0.598755 0.652425 
-47.1502 35.4893 -76.1432 55 62 74 0.559769 0.0637712 0.826191 
-48.133 34.4683 -75.8345 104 100 112 0.527362 -0.0810232 0.845769 
-47.6896 35.6518 -73.5942 92 109 99 0.620353 0.0180416 0.784115 
-46.7578 35.9306 -76.3245 56 55 70 0.631386 -0.0856362 0.770726 
-49.6741 34.9361 -74.9048 154 151 161 0.526815 0.212253 0.823052 
-46.5619 35.3523 -76.5395 53 52 69 0.700616 -0.220015 0.678771 
-46.3453 36.2933 -76.8243 151 149 161 0.506851 0.0370867 0.861235 
-46.8251 35.7696 -76.4672 47 48 65 0.555603 0.0122861 0.831357 
-46.3781 37.0842 -76.8659 130 123 133 0.529193 0.289081 0.797739 
-49.3475 35.2653 -74.9101 59 58 66 0.604783 -0.0793867 0.792424 
-47.0133 35.5963 -76.4011 33 37 53 0.392526 -0.437386 0.809084 
-46.4651 37.8557 -76.9443 105 98 110 0.45215 0.268225 0.850656 
-45.8005 37.9968 -77.3146 117 115 124 0.232674 -0.36145 0.902893 
-45.9611 35.2437 -76.7162 107 106 116 0.559842 0.156756 0.813637 
-49.4915 35.0554 -74.818 90 86 96 0.350361 0.0191106 0.93642 
-47.5196 35.6295 -75.8589 41 54 56 0.609643 -0.171795 0.773836 
-45.8591 38.0869 -77.2472 111 107 119 0.518787 0.423264 0.742771 
-49.1522 36.2075 -75.305 99 104 105 0.241659 -0.562831 0.790457 
-48.9322 37.6724 -75.6911 122 119 128 0.484314 0.150708 0.861816 
-48.727 36.9767 -75.3675 125 139 132 0.113954 -0.229188 0.966689 
-47.8597 37.9681 -76.183 74 67 76 0.429415 0.439138 0.789152 
-46.6434 35.0999 -76.494 49 45 63 0.243201 -0.0403298 0.969137 
-46.8639 35.3702 -76.4658 58 58 77 0.354611 -0.285784 0.890269 
-46.25 38.2566 -77.1725 134 132 142 0.318988 -0.263638 0.910353 
-46.5508 36.1316 -76.5989 98 98 112 0.54838 0.169772 0.818814 
-46.0714 35.5154 -76.8906 40 35 49 0.456052 0.0878632 0.885605 
-46.4379 35.7305 -76.7113 52 54 67 0.451299 -0.56454 0.691103 
-48.8847 36.1367 -75.3006 119 123 121 0.351606 0.701577 0.619808 
-48.7177 37.04 -75.4278 122 127 125 0.645602 0.514122 0.564691 
-48.2587 37.7509 -75.9613 148 147 152 0.499401 0.0981728 0.860791 
-46.0534 36.5064 -77.1323 116 112 125 0.502705 0.0540096 0.862769 
-46.9052 36.6951 -76.5269 91 93 90 0.259341 -0.507811 0.821505 
-47.5981 36.5699 -76.2554 89 109 93 0.24491 -0.228306 0.942282 
-48.833 35.0723 -74.8836 119 130 128 0.492517 0.25475 0.832184 
-48.5586 34.153 -75.4413 115 110 122 0.567718 0.121759 0.814169 
-47.8332 36.5471 -74.3323 80 102 87 0.0345129 0.942074 0.333625 
-49.6745 35.7627 -74.8214 98 99 102 0.431982 0.467844 0.771047 
-45.9272 36.8193 -77.2955 125 119 131 0.493894 0.0982094 0.863958 
-49.3175 35.2347 -75.2185 59 57 68 0.609841 0.0152114 0.792378 
