ply
format ascii 1.0
comment Created by CloudCompare v2.11 alpha (Anoia)
comment Created 15/10/2019 14:54
obj_info Generated by CloudCompare!
element vertex 741
property float x
property float y
property float z
property uchar red
property uchar green
property uchar blue
property float nx
property float ny
property float nz
end_header
-43.4799 29.6528 -77.5724 108 105 114 0.407117 -0.391276 0.825323 
-42.7454 27.6309 -77.6376 141 136 144 0.340577 0.0372707 0.939478 
-46.8953 27.4812 -75.8488 112 116 119 0.300049 -0.251237 0.920245 
-44.9549 25.0409 -76.3073 106 106 110 0.50821 0.120175 0.852808 
-45.1219 25.1425 -76.2096 93 93 100 0.514082 0.0988069 0.852031 
-44.3875 25.3929 -76.5093 89 98 80 0.584488 -0.285077 0.759675 
-46.3943 29.2678 -76.1395 98 96 100 0.358072 0.309725 0.880826 
-44.7363 27.5082 -74.2954 83 113 91 0.497166 0.358796 0.789995 
-43.8617 28.7369 -77.3241 75 77 77 0.541897 0.105489 0.833798 
-44.0163 27.8968 -76.2646 66 82 67 0.655806 -0.192884 0.729873 
-42.0153 25.2816 -77.8311 117 113 118 0.215606 -0.394544 0.893224 
-45.3807 26.7976 -76.2862 32 36 41 0.497119 0.107446 0.861004 
-44.7513 26.1338 -76.2172 88 102 83 0.230242 -0.177007 0.9569 
-45.6016 25.8858 -76.0737 118 115 123 0.517034 -0.194453 0.833585 
-43.3309 25.7928 -77.1427 99 99 95 0.588244 0.138498 0.796735 
-44.7891 27.0839 -75.5379 72 90 82 0.74453 -0.233547 0.625405 
-45.6568 24.4622 -75.9332 135 129 143 0.516185 0.0986614 0.850776 
-44.0884 24.7941 -76.6316 78 77 77 0.399423 -0.44113 0.803658 
-46.0122 28.4111 -75.9981 92 118 103 0.358002 -0.593401 0.720909 
-44.5279 29.4037 -76.9495 121 124 123 0.459072 0.197594 0.866146 
-45.1827 24.4631 -76.0972 151 146 158 0.530714 0.102116 0.841377 
-44.3342 25.6769 -76.4749 111 125 100 0.572424 -0.122137 0.810811 
-44.8654 29.5958 -76.8986 64 66 67 0.449691 0.0788688 0.889696 
-43.3084 27.8861 -77.3795 48 48 54 0.486231 -0.0798709 0.870172 
-43.8394 29.7965 -77.4159 136 133 140 0.331179 0.00624866 0.943547 
-45.7822 26.9492 -75.8732 98 123 105 0.442629 -0.0585632 0.894791 
-46.1819 26.3728 -75.9278 126 128 129 0.556576 0.127763 0.820914 
-45.0928 25.8782 -76.2169 88 89 93 0.315985 -0.675721 0.665999 
-45.9874 27.902 -75.67 93 120 104 0.355739 -0.152061 0.922132 
-45.5919 26.2759 -75.9901 140 151 148 0.622453 0.0467903 0.781257 
-44.2107 25.7586 -76.2287 93 114 81 0.290499 -0.711 0.640382 
-43.0539 26.1741 -77.3124 145 139 143 0.424718 0.537095 0.728796 
-43.1727 26.4635 -77.3217 136 131 136 0.462565 0.469149 0.752285 
-45.2422 28.3334 -75.5101 90 115 101 0.712708 0.199435 0.672512 
-46.629 29.2203 -75.9402 71 68 76 0.44287 -0.320807 0.837227 
-43.0394 27.4566 -77.3597 106 103 109 0.441189 0.355798 0.823869 
-43.143 25.3211 -77.0932 123 122 119 0.580444 0.164334 0.797545 
-45.5973 29.1624 -76.4883 73 81 71 0.18735 0.0388839 0.981523 
-43.7605 25.6824 -76.7626 71 80 61 0.646265 0.0125084 0.76301 
-44.4999 29.0001 -76.9207 116 122 112 0.419538 0.372043 0.827993 
-45.2981 25.5807 -76.3338 88 85 92 0.396761 -0.511054 0.762499 
-43.4299 30.1692 -77.6999 34 29 38 0.408172 -0.122031 0.904712 
-44.1607 28.0165 -75.8589 32 53 31 0.471462 0.406657 0.78253 
-42.823 25.7274 -77.4853 89 85 89 0.583837 0.16444 0.795044 
-46.2387 29.0981 -76.271 74 78 77 0.604668 0.129253 0.78592 
-44.2457 29.9272 -77.1621 81 79 86 0.48797 0.144206 0.860866 
-45.7072 24.6612 -75.9656 86 80 92 0.502985 0.193687 0.842313 
-46.0041 26.6658 -75.8614 119 121 121 0.270069 0.00847752 0.962804 
-43.1717 25.4596 -77.0119 138 136 133 0.56132 0.200362 0.802979 
-45.6649 29.0485 -76.2629 117 128 120 0.571429 0.15748 0.8054 
-44.4116 27.351 -76.1715 28 39 40 0.587263 -0.644475 0.489667 
-46.1387 26.7168 -75.8396 99 102 105 0.397131 0.0382618 0.916964 
-44.0613 25.5073 -76.163 114 125 104 0.628153 0.181874 0.756535 
-43.1271 28.1285 -77.5368 96 96 100 0.319886 -0.11109 0.940921 
-46.6208 27.2686 -75.7557 60 60 66 0.412481 0.0250388 0.910622 
-43.7998 27.9706 -76.7983 55 63 52 0.560237 0.411502 0.718888 
-43.5198 25.6579 -76.7123 54 57 46 0.575173 0.200927 0.792972 
-43.613 29.6549 -77.517 94 92 100 0.617497 -0.0496837 0.785002 
-43.7842 27.3546 -76.7012 49 53 61 0.624135 -0.107204 0.773927 
-47.1319 28.2063 -75.6399 86 84 94 0.402332 0.0169266 0.915337 
-43.9249 27.9249 -76.9209 78 87 73 0.435363 0.409659 0.801647 
-43.1058 25.7978 -77.3089 88 83 85 0.403878 0.518337 0.753796 
-45.8576 24.6383 -75.8643 85 79 92 0.334582 0.310576 0.889718 
-45.0085 25.7389 -76.3449 65 66 67 0.300491 -0.33637 0.892502 
-42.9174 25.5836 -77.326 81 76 79 0.342871 0.599618 0.723117 
-43.0812 25.6985 -77.2056 134 130 130 0.427989 0.490302 0.75923 
-43.3499 25.9161 -77.1777 96 92 91 0.431551 0.464121 0.773535 
-43.9275 28.6355 -77.2283 115 117 115 0.53498 0.142956 0.832682 
-45.5403 29.1853 -76.5027 114 123 112 0.521995 -0.0149141 0.852818 
-42.7979 25.6294 -77.4202 113 108 112 0.342871 0.599618 0.723117 
-45.655 27.6339 -75.6818 92 115 100 0.381231 0.561211 0.734646 
-45.888 25.3538 -75.8432 118 114 125 0.46984 0.2251 0.853569 
-46.1576 29.7897 -76.3918 153 159 150 0.506028 0.25224 0.82481 
-45.6626 29.3704 -76.4532 142 146 137 0.462668 0.181815 0.867687 
-42.9433 25.22 -77.2861 73 69 72 0.535905 0.0401582 0.843323 
-45.8353 25.1088 -75.9061 85 81 93 0.487593 0.196537 0.850662 
-42.7809 25.7663 -77.438 130 123 128 0.41308 0.497981 0.762483 
-42.3252 26.3363 -77.8003 105 102 106 0.344679 -0.273673 0.897942 
-43.1348 29.1095 -77.7283 92 89 97 0.559056 0.131282 0.81867 
-43.5643 29.2586 -77.554 65 63 70 0.355439 -0.358516 0.863209 
-43.7313 26.7004 -76.7788 44 47 52 0.226833 -0.237831 0.944449 
-47.2749 28.5433 -75.5427 67 62 73 0.454754 0.0532595 0.889023 
-43.6199 26.7641 -77.2341 96 98 104 0.379343 -0.153712 0.912399 
-42.7586 26.1417 -77.5216 122 116 121 0.526119 0.30677 0.793152 
-45.5041 27.0503 -76.0084 70 77 76 0.401687 -0.297829 0.865994 
-43.7034 28.1534 -77.2711 68 72 72 0.474476 0.316843 0.821269 
-42.9177 26.2514 -77.4006 96 90 95 0.552783 0.247585 0.795696 
-42.7101 25.6309 -77.4112 111 105 109 0.423472 0.482333 0.766828 
-44.5723 28.612 -76.6882 91 103 80 0.356361 0.56139 0.746893 
-45.1192 24.8417 -76.1536 101 96 108 0.365975 -0.504627 0.78193 
-45.0368 29.8155 -76.8927 92 94 97 0.446678 0.0994173 0.889154 
-44.3915 28.4414 -76.0835 115 136 103 -0.0793186 0.923591 0.375083 
-43.6692 27.9727 -77.2063 83 91 88 0.297875 -0.150978 0.94259 
-44.6944 26.6712 -76.8209 55 61 63 0.607401 0.165104 0.777049 
-44.1205 27.6302 -74.8064 110 139 120 0.714192 0.19985 0.670813 
-44.3379 27.2477 -76.2171 27 36 39 0.54894 0.254921 0.796041 
-45.2492 25.84 -76.2656 85 85 92 0.514884 -0.0572093 0.855349 
-44.7302 28.2377 -75.9737 39 59 38 -0.137311 0.939425 0.314048 
-42.6175 25.7615 -77.577 124 117 123 0.452866 0.404517 0.79453 
-43.7845 24.7027 -76.8237 129 128 121 0.45072 0.440957 0.77615 
-42.3388 25.8363 -77.8164 151 142 150 0.44276 0.436273 0.783345 
-43.5963 28.1281 -77.3611 93 96 96 0.321101 -0.385629 0.864976 
-45.2962 24.5276 -76.1461 99 94 107 0.478628 0.189364 0.857355 
-42.7376 26.1135 -77.5599 113 106 112 0.433641 0.443386 0.784452 
-47.2048 28.387 -75.5815 69 64 75 0.362681 -0.332075 0.87074 
-42.8918 27.2136 -77.5847 113 108 115 0.34698 0.0784362 0.934587 
-44.243 25.0401 -76.4849 140 148 132 0.580879 -0.23204 0.780216 
-45.1545 28.6566 -76.7463 133 150 126 0.611218 0.0496349 0.789904 
-43.6051 26.7939 -77.18 107 110 114 0.538649 0.28907 0.791388 
-45.85 29.1047 -76.3889 119 126 119 0.58558 0.0669641 0.807844 
-44.911 25.7678 -76.2682 83 88 79 0.237299 -0.636463 0.733897 
-45.2284 25.3358 -76.2582 111 109 118 0.336166 -0.532397 0.776882 
-46.3011 26.4128 -75.7455 78 75 79 0.335149 0.144817 0.930969 
-44.1529 29.3303 -77.2364 112 109 114 0.444379 0.374297 0.813898 
-46.3332 29.5548 -76.2011 96 99 98 0.400623 0.35074 0.846453 
-43.6224 28.5142 -77.4171 51 53 52 0.647802 0.182242 0.739689 
-43.7765 28.1873 -76.6896 85 93 81 0.17514 0.759955 0.625935 
-43.7885 26.6221 -77.1404 41 44 45 0.39017 0.00901383 0.920699 
-42.9034 26.2736 -77.5518 100 99 102 0.258856 0.0458262 0.964828 
-44.0585 27.7419 -76.8848 49 57 57 0.573061 0.0757413 0.816005 
-43.7648 28.3153 -76.8893 79 84 75 0.371572 0.517604 0.770727 
-43.8981 25.7894 -76.5943 141 150 129 0.603724 0.177924 0.777085 
-43.5705 27.0638 -77.1516 42 42 52 0.494277 -0.183674 0.849679 
-45.8273 28.9 -76.3823 105 112 106 0.417283 0.410888 0.810584 
-45.1499 26.3525 -76.4593 95 99 95 0.629618 0.0352135 0.776106 
-45.3661 27.1543 -76.0857 34 42 42 0.336078 -0.391833 0.856457 
-44.9828 25.0494 -76.3089 103 101 108 0.456319 0.241046 0.856545 
-44.0178 25.0203 -76.6136 100 102 92 0.429371 -0.0305744 0.90261 
-47.1898 27.804 -75.5774 71 67 77 0.42026 -0.0144014 0.90729 
-46.0516 24.5189 -75.6744 99 95 107 0.413705 0.178546 0.892731 
-43.5982 30.3643 -77.5365 85 79 89 0.573433 0.11586 0.811019 
-43.5733 27.5118 -76.9819 57 61 67 0.656137 0.133021 0.742825 
-44.0025 28.2527 -76.6991 86 100 83 0.659745 -0.114158 0.742769 
-43.8385 28.4595 -77.2141 121 125 122 0.527406 0.127103 0.840052 
-44.2695 28.4431 -76.6535 104 118 91 0.254644 0.710156 0.65638 
-45.4486 26.4418 -76.0188 83 95 93 0.622453 0.0467903 0.781257 
-43.4127 30.1641 -77.6957 67 60 71 0.558804 0.266022 0.785474 
-43.3072 25.2021 -77.1185 74 71 70 0.715948 -0.186301 0.672837 
-43.7177 29.1744 -77.3917 80 79 82 0.429376 -0.199195 0.880885 
-43.6064 28.1654 -77.334 88 90 91 0.298213 -0.370874 0.879501 
-45.3859 25.5374 -76.0935 88 93 95 0.502899 0.095451 0.859059 
-45.7396 25.0204 -75.9384 87 84 96 0.518507 0.111212 0.84781 
-45.2414 24.8925 -76.1547 69 65 77 0.446507 0.274655 0.851585 
-42.5861 25.6387 -77.5713 117 114 117 0.192183 0.0513285 0.980016 
-43.1162 27.2268 -77.4407 99 96 102 0.496041 0.0980712 0.862743 
-43.3686 26.6181 -77.4424 117 115 119 0.462285 -0.372707 0.8046 
-44.8537 28.4921 -76.6226 125 135 113 0.206768 0.694928 0.68871 
-45.979 29.304 -76.3923 127 136 125 0.365096 -0.325378 0.872258 
-46.6683 26.7773 -75.4558 115 112 115 0.312484 0.373457 0.873432 
-44.0613 26.1714 -76.7025 117 127 109 0.556345 0.337032 0.759532 
-44.4486 25.903 -76.2835 78 93 69 0.329042 -0.620803 0.711573 
-46.6584 29.6843 -75.9948 106 101 110 0.424191 0.286367 0.859102 
-45.7079 29.1082 -75.8931 91 99 94 0.370295 0.502889 0.781015 
-44.6171 29.6886 -77.0577 105 102 109 0.509755 0.217597 0.832347 
-46.4683 26.6308 -75.6692 126 122 126 0.470913 -0.601629 0.645201 
-42.7915 25.4551 -77.3766 118 113 116 0.580444 0.164334 0.797545 
-46.4083 26.8346 -75.6893 54 54 59 0.363475 0.0485508 0.930338 
-45.7205 28.7192 -76.4038 146 149 146 0.42309 0.400738 0.812652 
-46.5271 27.8894 -75.929 174 180 182 0.558553 0.308885 0.769811 
-43.7834 26.0902 -77.0114 179 183 175 0.542902 0.146451 0.826928 
-46.4359 25.3756 -75.4858 96 98 99 0.618279 0.148928 0.77172 
-44.8004 29.6887 -77.0285 84 83 88 0.612544 0.155017 0.775087 
-43.3785 28.7884 -77.5259 81 76 83 0.478377 0.341698 0.808949 
-45.573 29.6911 -76.5243 88 94 84 0.590114 0.0942442 0.8018 
-44.7441 29.2816 -76.9083 140 141 142 0.325303 -0.543239 0.773996 
-46.6745 29.2902 -75.914 96 92 101 0.58016 0.137992 0.802728 
-45.0617 26.5492 -76.5276 48 52 53 0.624386 0.0614384 0.778696 
-44.4111 29.3895 -77.1218 116 115 118 0.590636 0.100627 0.80064 
-43.2444 26.6792 -77.3294 155 152 157 0.386972 0.53719 0.749453 
-43.3764 27.0172 -77.3436 110 109 114 0.403308 0.561339 0.722662 
-43.1016 25.8759 -77.346 114 111 112 0.587059 0.0263691 0.809115 
-42.955 26.2281 -77.4814 106 99 105 0.462565 0.469149 0.752285 
-42.8945 28.1152 -77.6274 131 128 135 0.374801 -0.36858 0.85069 
-43.4059 25.9241 -77.0963 110 107 105 0.503841 0.248069 0.827409 
-44.7909 25.578 -76.3424 126 133 123 0.571327 -0.25201 0.781074 
-44.2604 27.7092 -74.4725 83 114 91 0.357521 0.582808 0.729735 
-45.3815 28.4478 -76.5443 107 123 107 0.568741 0.115503 0.814367 
-43.4343 28.6728 -77.4528 99 99 99 0.368516 0.00892599 0.929579 
-46.5747 26.4988 -75.6411 133 131 133 0.376751 -0.358146 0.854278 
-43.3283 29.9689 -77.6686 62 58 68 0.398999 -0.246572 0.883177 
-44.2015 27.5415 -74.8929 100 127 110 0.735434 -0.0954156 0.670845 
-43.4096 27.2363 -77.2723 35 35 39 0.553575 0.213149 0.80506 
-43.2815 28.2405 -77.4534 58 59 60 0.262387 0.048498 0.963743 
-46.1699 28.1151 -75.889 116 133 125 0.360916 0.0429972 0.931607 
-46.098 26.5277 -75.8962 155 152 156 0.448016 -0.51745 0.729059 
-45.5878 24.6539 -76.0146 97 91 104 0.486634 0.193156 0.851985 
-44.6133 28.9986 -76.9776 109 108 109 0.339227 0.582692 0.738509 
-43.0192 26.8907 -77.5051 143 138 145 0.368094 0.574227 0.73128 
-43.0995 26.6803 -77.3913 128 123 128 0.440957 0.45072 0.77615 
-43.0232 26.0225 -77.3526 80 77 80 0.535059 0.208841 0.818595 
-46.6699 27.7345 -75.8329 131 136 138 0.393609 -0.00128212 0.919277 
-43.7263 29.13 -77.4147 97 95 100 0.570146 0.0847321 0.817162 
-44.3696 27.0164 -74.7287 88 111 97 0.72663 -0.279473 0.627617 
-43.8998 25.2232 -76.653 110 114 100 0.730627 -0.127001 0.670862 
-42.2841 26.2739 -77.8044 128 120 127 0.45777 0.272812 0.84618 
-46.6743 27.0025 -75.6172 79 78 84 0.37062 0.0540762 0.927209 
-45.9937 25.3193 -75.8051 95 91 101 0.501391 0.154387 0.851335 
-45.2557 25.1554 -76.1191 105 105 112 0.537116 0.0205006 0.843259 
-45.4858 25.279 -76.0037 117 121 126 0.525654 0.0515894 0.849133 
-43.6947 25.0981 -76.7798 79 79 74 0.47415 0.118896 0.872379 
-44.9609 26.6949 -76.6549 104 109 113 0.630383 0.0467475 0.774875 
-43.0783 27.1145 -77.5339 95 91 98 0.42151 0.54383 0.725658 
-44.8935 25.9777 -76.1966 100 108 100 0.367401 -0.440563 0.819098 
-46.7019 29.0577 -76.0537 52 50 58 0.607047 0.158164 0.778767 
-44.777 25.7046 -76.432 106 117 97 0.229621 -0.309489 0.922763 
-43.7855 29.1239 -77.37 92 90 95 0.429376 -0.199195 0.880885 
-45.8698 29.2219 -76.2783 93 101 95 0.580658 0.200702 0.789021 
-44.3367 27.1232 -76.794 31 42 43 0.564687 0.147504 0.812017 
-44.8811 29.1129 -76.9736 194 199 194 0.347441 -0.501148 0.79255 
-43.4789 24.8301 -76.9351 97 95 89 0.547799 0.0693595 0.83373 
-44.4378 29.1389 -77.035 107 110 106 0.474963 0.259769 0.840792 
-43.4177 25.3912 -76.9458 61 62 54 0.642696 -0.098088 0.759816 
-46.0175 26.9468 -75.9844 73 74 81 0.694381 -0.248332 0.6754 
-42.72 26.7969 -77.6526 87 83 89 0.478721 0.218974 0.850221 
-45.0876 28.3961 -76.5434 120 127 111 0.321028 0.488658 0.811267 
-45.9795 27.5359 -76.0262 109 114 112 0.415679 0.217455 0.883133 
-44.1576 27.9575 -75.8989 43 63 44 0.616257 0.162014 0.7707 
-43.005 25.361 -77.2429 94 91 93 0.641986 0.283371 0.712429 
-46.0655 25.1661 -75.7849 153 150 160 0.442573 0.114532 0.889388 
-44.5198 26.1886 -76.463 96 111 89 0.509129 -0.21125 0.834363 
-45.218 25.6608 -76.1464 112 113 118 0.525096 0.114277 0.843336 
-45.8664 28.199 -75.952 113 133 122 0.401866 0.312563 0.860702 
-44.2842 27.6976 -76.4975 34 47 39 0.634489 -0.308365 0.708755 
-43.513 25.9518 -76.9493 108 110 102 0.311133 -0.0853319 0.946528 
-44.7635 27.2192 -74.2607 85 111 93 0.427667 0.496487 0.755381 
-46.1503 25.0274 -75.6599 156 154 162 0.389543 0.272229 0.879856 
-45.2563 27.0732 -75.3038 42 58 51 0.0590926 -0.933664 0.353243 
-42.5922 25.1473 -77.5142 87 81 83 0.458181 0.441875 0.771244 
-42.9313 25.6119 -77.3762 98 94 98 0.667179 0.192604 0.719567 
-43.7744 26.3747 -76.4899 91 99 86 0.658898 -0.0528833 0.750371 
-44.8866 29.6212 -76.7796 72 72 76 0.395677 0.205869 0.895018 
-43.3953 27.2108 -77.2875 32 31 40 0.558947 0.0462287 0.827914 
-43.2726 27.2929 -77.3297 117 116 121 0.609356 0.142233 0.780035 
-46.4757 25.7535 -75.4673 67 71 65 0.476856 0.563861 0.674291 
-42.4493 25.5816 -77.6591 171 169 173 0.189462 0.0488549 0.980672 
-46.9248 28.3429 -75.7176 102 103 111 0.447604 0.0253865 0.893872 
-44.075 27.8199 -75.9091 49 63 53 0.380951 0.470964 0.795656 
-44.0757 24.6777 -76.585 104 107 97 0.202213 0.318167 0.926218 
-44.1809 27.3789 -76.6416 36 43 47 0.335188 -0.390796 0.857279 
-43.7912 28.226 -77.2065 64 69 67 0.511575 0.113843 0.851664 
-42.8564 26.3139 -77.5945 119 112 118 0.459258 0.472426 0.752261 
-44.0951 26.3759 -76.8173 88 93 83 0.562521 0.0787243 0.823027 
-46.2567 27.6374 -75.8633 111 121 121 0.427607 0.486588 0.761829 
-44.5066 25.9203 -76.3027 72 88 64 0.354812 -0.549229 0.756608 
-42.6713 26.2614 -77.6882 126 122 128 0.424804 0.0899422 0.900806 
-46.828 29.3151 -75.8148 84 79 90 0.533282 0.222841 0.816059 
-46.1848 26.7723 -75.7826 89 92 92 0.358938 0.0787261 0.930035 
-46.5258 27.8284 -75.9274 122 132 134 0.561022 0.279721 0.779109 
-45.5728 28.2684 -76.4259 125 126 122 0.425721 0.245203 0.870998 
-45.6427 28.0675 -76.346 90 90 87 0.416563 0.251141 0.87373 
-45.3519 28.2801 -76.4904 148 151 142 0.443343 0.226932 0.86715 
-44.7226 30.1422 -77.1152 90 89 95 0.540811 0.146686 0.828255 
-44.5357 26.8698 -75.6443 42 50 52 0.5454 -0.59268 0.59268 
-44.1589 28.7435 -77.072 124 129 121 0.57354 0.0580621 0.817117 
-44.185 26.136 -76.3836 116 132 109 0.48943 0.404877 0.772356 
-43.5635 25.8755 -77.2411 97 99 91 0.287541 0.0519347 0.956359 
-43.4142 25.3166 -76.9394 59 58 52 0.737319 -0.233249 0.634 
-43.9279 26.9756 -77.0818 55 57 67 0.572533 0.131668 0.80924 
-45.1932 29.6429 -76.7813 87 91 91 0.489031 -0.00937867 0.872216 
-45.9901 26.0428 -75.9056 143 141 147 0.485047 -0.0857619 0.870273 
-44.542 28.5069 -76.1173 99 121 95 0.657559 -0.192494 0.728397 
-45.861 29.1637 -76.3179 85 97 89 0.25304 0.043202 0.966491 
-42.7108 26.3 -77.6186 124 116 123 0.528879 0.277779 0.801951 
-46.7296 26.097 -75.5161 114 119 111 0.391611 0.0914214 0.915578 
-44.5295 29.6178 -76.8358 85 85 89 0.312959 0.377077 0.871705 
-43.6508 30.324 -77.5654 80 76 85 0.561217 0.118691 0.819114 
-42.5949 26.1856 -77.635 101 97 103 0.430904 0.0784714 0.898979 
-45.1119 26.5187 -76.4411 31 35 37 0.342099 -0.410832 0.845095 
-42.5058 26.2222 -77.6553 113 105 112 0.523873 0.281601 0.803901 
-44.5929 28.781 -76.4662 108 125 100 0.39178 0.404469 0.826386 
-45.6392 28.8186 -76.4523 110 119 111 0.463901 0.355498 0.811429 
-43.3126 25.7313 -77.0631 89 88 84 0.442073 0.45186 0.774851 
-46.6351 27.4235 -75.8634 45 44 51 0.372735 -0.532247 0.76012 
-43.9294 29.4044 -77.3676 120 117 123 0.395514 -0.0829084 0.91471 
-43.4422 27.6488 -77.3113 100 102 108 0.560752 0.102877 0.821567 
-44.3669 27.2567 -76.6273 26 32 36 0.251864 0.040544 0.966913 
-44.3888 27.0915 -76.5076 32 37 47 0.631283 0.161984 0.758448 
-46.3786 25.8411 -75.6615 87 88 89 0.438855 0.0729132 0.895595 
-43.9663 29.9213 -77.3266 74 72 79 0.271875 0.0513682 0.960961 
-45.9871 24.3148 -75.761 104 99 112 0.571469 0.147717 0.807219 
-43.3611 26.3276 -77.2864 134 134 133 0.301989 0.0989047 0.948167 
-44.4246 28.1491 -76.0419 77 98 72 0.251317 0.687566 0.681244 
-46.4112 29.2596 -76.1783 70 72 75 0.323311 -0.264793 0.90849 
-42.4584 25.7148 -77.6687 120 115 121 0.472931 -0.0795194 0.877504 
-43.5654 30.3036 -77.6877 105 102 111 0.482774 0.0886727 0.871244 
-45.6687 29.1362 -76.4945 119 124 115 0.388183 0.542146 0.745246 
-46.1749 26.4168 -75.8536 92 91 97 0.361252 0.122249 0.92442 
-44.0058 29.1579 -77.2134 126 124 127 0.549804 0.137082 0.823969 
-43.4159 27.9879 -77.372 101 101 103 0.552657 0.078543 0.829699 
-42.5904 26.8257 -77.6741 96 93 98 0.423024 -0.215223 0.880187 
-44.3934 27.9796 -74.7933 71 103 81 0.702669 0.206302 0.680953 
-43.6403 30.3532 -77.5208 57 54 61 0.310947 0.0632215 0.948322 
-44.0495 26.0905 -76.8316 104 115 96 0.517524 -0.184509 0.835539 
-46.3821 28.134 -75.8484 137 140 145 0.452758 -0.041897 0.890649 
-44.3485 29.024 -77.0211 109 108 109 0.372357 0.53821 0.756096 
-42.937 28.4987 -77.6463 67 64 70 0.364732 -0.328106 0.871388 
-45.193 28.3433 -76.5567 130 135 122 0.451444 0.217473 0.865392 
-42.1456 25.3109 -77.771 150 143 151 0.575129 0.032029 0.817435 
-42.7944 25.4255 -77.4237 95 91 95 0.556845 0.072632 0.827435 
-46.3253 29.2357 -76.109 84 86 88 0.459677 0.35788 0.812785 
-45.227 28.181 -76.3349 129 136 123 0.405681 0.295459 0.864943 
-44.3873 27.5386 -74.5283 115 147 123 0.444381 0.441125 0.779701 
-46.226 26.7465 -75.7717 93 90 94 0.393299 -0.483936 0.781743 
-43.4725 25.6096 -76.6971 59 62 51 0.603214 0.442803 0.663369 
-44.4987 24.7675 -76.5061 78 82 80 0.0687831 0.509557 0.857683 
-44.5409 27.8545 -75.8756 41 65 49 0.575281 0.249236 0.779059 
-43.1237 26.5345 -77.4539 125 123 126 0.317128 0.0968634 0.943423 
-43.3691 30.0334 -77.6755 70 66 75 0.545328 0.150077 0.824678 
-46.4312 27.0167 -75.6024 131 129 133 0.528594 0.372455 0.762801 
-44.0727 27.2463 -76.6669 32 36 45 0.313776 -0.362283 0.877665 
-46.4558 26.1979 -75.6372 84 85 86 0.330726 0.171643 0.927987 
-45.3953 26.6192 -76.3711 59 60 65 0.573723 0.144548 0.806193 
-44.3999 25.2967 -76.5674 92 97 85 0.489354 0.0284666 0.87162 
-43.8822 29.8561 -77.323 93 90 99 0.484885 -0.0174612 0.874404 
-46.2928 26.4039 -75.7774 54 53 57 0.375306 0.0460902 0.925754 
-47.0471 28.3621 -75.6724 212 210 219 0.54221 0.315089 0.778927 
-43.896 26.1245 -76.6091 114 124 104 0.584707 0.160832 0.795142 
-43.9519 26.474 -76.988 60 66 64 0.572533 0.131668 0.80924 
-43.0475 25.9874 -77.3661 85 83 85 0.555676 0.131181 0.820985 
-43.0836 26.4691 -77.4413 103 100 105 0.498047 0.176918 0.84891 
-42.359 25.9274 -77.7698 115 109 116 0.46563 -0.0563151 0.883186 
-44.4428 29.1281 -77.0934 106 102 107 0.450532 0.389606 0.803261 
-43.7087 27.0585 -77.1728 32 33 43 0.499538 -0.0953535 0.861028 
-46.7135 28.47 -75.7695 164 164 173 0.444554 -0.00923407 0.895704 
-46.4087 26.7086 -75.7086 90 88 93 0.364947 0.0431658 0.930027 
-43.3798 28.3476 -77.4352 85 84 87 0.481431 0.243008 0.842123 
-44.2302 28.3822 -76.3524 98 117 83 -0.0650317 0.927696 0.367628 
-45.2947 26.2394 -76.107 72 71 79 0.335899 -0.528759 0.779478 
-45.0657 28.1561 -74.5915 75 103 83 0.136502 0.83516 0.5328 
-44.8632 29.5378 -76.887 50 50 54 0.136146 0.00774817 0.990658 
-43.2977 26.1592 -77.2545 135 137 133 0.368703 0.0904874 0.925133 
-46.6405 29.292 -76.067 80 77 84 0.627307 0.16556 0.76097 
-43.1118 27.6962 -77.5982 95 92 100 0.467257 -0.38055 0.79803 
-46.5283 29.0983 -76.0939 77 76 82 0.605139 0.158453 0.780192 
-42.2999 25.6008 -77.7557 113 107 114 0.465777 0.0393806 0.884025 
-44.7981 27.409 -74.3436 47 79 57 0.362371 -0.275879 0.890269 
-45.8037 24.9705 -75.8618 114 110 120 0.491743 0.186832 0.85046 
-45.2129 25.8541 -76.1636 67 65 71 0.31832 -0.453175 0.83265 
-45.8097 26.4146 -76 98 99 102 0.562212 0.134282 0.816019 
-45.8464 25.1511 -75.8126 91 88 97 0.46984 0.2251 0.853569 
-44.794 24.4616 -76.3178 126 126 137 0.0234484 0.5669 0.823453 
-43.9055 28.1761 -77.0609 44 57 47 0.276063 -0.140032 0.950884 
-44.9632 26.7351 -76.6304 86 89 94 0.644981 0.1201 0.754702 
-43.8689 26.6064 -76.6349 77 85 79 0.546272 -0.0874609 0.833029 
-43.6917 25.7134 -76.5303 89 96 78 0.62152 0.409374 0.667927 
-42.9993 26.2129 -77.3279 163 160 162 0.353821 -0.0401775 0.93445 
-43.9928 28.5231 -77.1068 70 70 67 0.535839 0.219556 0.815274 
-45.415 29.7918 -76.5707 134 140 131 0.301984 0.0161555 0.953176 
-45.9373 28.8414 -76.4005 100 102 99 0.326542 0.638463 0.696948 
-42.8647 27.8102 -77.663 108 104 112 0.318445 0.0137368 0.947842 
-44.3691 27.1286 -76.5701 30 36 44 0.641206 0.172105 0.74782 
-45.2749 29.9075 -76.666 102 106 104 0.589059 0.309778 0.746356 
-47.167 29.4837 -75.6527 55 53 62 0.331128 0.0693668 0.941033 
-45.5786 25.2053 -76.0535 101 97 110 0.482418 0.202886 0.852121 
-43.0185 25.8723 -77.5424 94 90 92 0.396864 -0.371766 0.839219 
-44.2615 27.4664 -76.627 42 49 53 0.635457 -0.318537 0.703369 
-45.7658 29.0713 -76.3975 145 149 142 0.484433 0.250675 0.838145 
-46.5465 27.395 -75.8538 63 66 72 0.361237 0.0648373 0.930217 
-43.018 27.0769 -77.5331 95 92 97 0.317128 0.0968634 0.943423 
-44.345 28.293 -75.0083 68 95 75 0.400568 0.578598 0.710472 
-46.3781 25.0691 -75.569 113 116 120 0.456452 0.20072 0.866812 
-46.0741 28.4792 -76.1082 125 130 134 0.23332 -0.00829056 0.972365 
-46.1967 24.9714 -75.6462 147 145 153 0.457631 0.201238 0.86607 
-46.1045 24.8485 -75.7026 97 94 105 0.434173 0.123039 0.892388 
-46.8673 28.916 -75.7106 92 88 98 0.411043 -0.370096 0.83311 
-44.5995 29.5014 -76.9345 131 131 134 0.145182 0.0168816 0.989261 
-44.1617 25.2444 -76.5891 114 128 105 0.46387 0.0882894 0.881493 
-43.412 25.3919 -76.9403 60 59 53 0.594308 0.122401 0.794869 
-45.4763 29.6514 -76.5565 112 117 111 0.525143 0.235621 0.817745 
-44.1269 29.664 -77.2684 83 78 86 0.478017 0.353317 0.804156 
-45.2794 25.5303 -76.2745 102 99 108 0.324698 -0.25772 0.910028 
-43.3681 29.4858 -77.5117 66 63 71 0.334972 -0.00878204 0.942187 
-42.293 26.3866 -77.8147 124 119 125 0.54983 0.127561 0.825479 
-43.7011 28.2325 -77.1546 73 74 71 0.532535 0.212099 0.819402 
-45.0445 28.272 -76.3409 117 127 109 0.254721 0.798544 0.545385 
-47.4292 29.1623 -75.5435 104 97 109 0.605729 0.212237 0.766843 
-42.4625 26.7586 -77.7439 98 95 99 0.383086 -0.0739288 0.92075 
-42.9751 26.3594 -77.4616 113 109 115 0.463064 0.076482 0.883019 
-42.8775 27.3209 -77.559 119 114 121 0.456786 0.21117 0.864149 
-42.5654 26.7249 -77.7212 61 58 63 0.422752 -0.218051 0.879622 
-46.1051 24.261 -75.7761 150 143 155 0.528879 0.277779 0.801951 
-44.221 26.5491 -76.753 55 68 65 0.608965 0.0068732 0.793167 
-45.0311 26.92 -76.6216 40 43 51 0.733556 -0.159469 0.660656 
-43.9137 28.0389 -76.0838 104 124 99 0.620705 0.16542 0.766396 
-42.5825 26.353 -77.6938 122 114 121 0.537833 0.257224 0.802852 
-44.7756 26.054 -76.4124 58 85 52 0.301778 -0.298834 0.905333 
-46.9112 27.0555 -75.5755 128 123 131 0.605973 0.164716 0.778245 
-44.0513 28.585 -77.0955 81 86 79 0.594085 0.349941 0.724296 
-46.1192 25.4307 -75.71 125 125 129 0.566665 0.128052 0.813937 
-43.7581 28.0871 -77.145 87 92 92 0.537312 0.0812382 0.839462 
-44.4184 27.6128 -74.6159 51 81 60 0.747581 0.0125293 0.664052 
-44.1153 28.9229 -76.9436 81 86 78 0.441073 0.0728251 0.894512 
-46.6601 26.3251 -75.5576 134 131 131 0.54642 0.153355 0.823352 
-43.0143 26.5521 -77.3712 136 132 137 0.552881 0.230754 0.800671 
-44.4314 27.0612 -76.727 37 42 51 0.62078 -0.00967809 0.783925 
-44.5604 29.8324 -77.0945 108 105 112 0.471606 0.218476 0.854316 
-44.0158 30.0372 -77.3634 70 69 74 0.283276 0.0259773 0.958686 
-43.3442 28.1659 -77.4752 61 61 65 0.515283 0.00403616 0.857011 
-42.6199 27.2372 -77.7725 113 107 115 0.377727 0.0852933 0.92198 
-44.1739 25.3442 -76.5418 138 143 124 0.465506 0.106118 0.87866 
-44.0182 26.3065 -76.9442 95 103 96 0.574738 0.12854 0.808179 
-45.5058 28.3232 -76.3868 96 114 100 0.414412 0.28596 0.863996 
-46.201 24.2517 -75.6675 69 64 77 0.451214 0.0644591 0.890085 
-44.1173 24.9465 -76.8216 107 105 103 0.50803 0.187327 0.840722 
-46.1101 24.1772 -75.6684 135 127 140 0.49676 0.343419 0.797052 
-45.5561 28.873 -76.2316 104 118 108 0.517005 0.136208 0.845076 
-42.82 25.8726 -77.5186 132 128 132 0.54639 0.0547794 0.835738 
-44.4929 27.5873 -74.3542 110 142 118 0.397316 0.52812 0.750486 
-44.3648 29.9881 -77.0976 101 98 104 0.161199 0.0240084 0.98663 
-45.0539 28.9971 -76.8064 159 167 155 0.605367 0.12581 0.785941 
-43.2859 27.2782 -77.3899 53 52 58 0.330429 0.0639962 0.941659 
-42.6253 26.6972 -77.6944 97 93 99 0.492473 0.113427 0.862905 
-46.7237 27.8316 -75.7724 94 96 101 0.552607 0.269219 0.788763 
-45.1389 29.751 -76.8648 130 130 131 0.532026 0.30651 0.789304 
-46.6125 27.0667 -75.6212 93 92 98 0.319705 0.230818 0.918973 
-44.5779 25.7574 -76.3792 65 81 54 0.34819 -0.629358 0.694746 
-42.5743 25.1992 -77.4766 93 87 89 0.355665 0.337347 0.871607 
-42.7348 27.1068 -77.6965 86 79 87 0.479581 0.0796971 0.873871 
-44.0122 28.1911 -76.1318 118 139 110 0.630595 0.165626 0.758233 
-43.2317 28.6714 -77.5342 114 111 116 0.51447 0.234967 0.824688 
-44.3554 30.0687 -77.2233 66 64 71 0.489078 0.113305 0.86485 
-45.6317 27.8153 -75.782 104 120 110 -0.207073 0.944858 0.253699 
-46.6837 28.2976 -75.8293 135 136 145 0.450986 -0.164924 0.877161 
-43.396 26.8045 -77.3717 93 91 98 0.466595 -0.175157 0.866954 
-43.8931 28.503 -77.2015 89 94 90 0.578231 0.14792 0.802352 
-43.9827 27.2058 -77.0637 26 29 39 0.405024 -0.395494 0.824342 
-47.2386 28.8283 -75.5775 143 138 148 0.605846 0.132482 0.784474 
-43.9389 27.6928 -76.4466 46 57 54 0.676096 -0.196485 0.710132 
-43.9526 25.4985 -76.4019 115 126 103 0.597352 0.408715 0.690016 
-43.6026 28.4668 -77.3974 64 65 66 0.613694 0.085598 0.78489 
-44.0621 28.3629 -76.0358 137 157 122 0.322169 0.61034 0.723666 
-45.5734 27.2179 -75.2257 60 78 68 -0.314325 -0.739873 0.5948 
-46.9368 28.5829 -75.7064 123 120 130 0.448754 0.0145613 0.893537 
-43.0741 28.7952 -77.6398 96 92 99 0.532374 0.195659 0.823587 
-46.2212 26.7112 -75.8104 71 71 76 0.34239 0.176126 0.922902 
-44.7814 27.1387 -76.7132 30 34 43 0.399978 0.239392 0.884709 
-44.0406 28.0565 -75.8293 54 72 54 0.48713 0.313718 0.815037 
-45.4402 26.7101 -76.2219 85 85 92 0.140882 -0.477837 0.867078 
-43.0029 25.0778 -77.3679 99 95 97 0.479009 0.106604 0.871313 
-43.8792 26.4896 -77.0428 51 55 52 0.479613 0.125304 0.868488 
-46.0429 26.1887 -75.9024 110 108 113 0.552024 0.115066 0.825851 
-43.733 25.0796 -76.7373 109 115 99 0.627537 -0.00137317 0.778585 
-43.3295 28.1835 -77.4223 86 85 87 0.552531 0.0813805 0.82951 
-45.4815 25.6401 -76.125 111 109 116 0.366 -0.435714 0.822312 
-43.3462 30.3016 -77.7049 91 88 95 0.281515 0.0517583 0.95816 
-44.7376 26.7096 -75.7004 55 61 62 0.387172 -0.461072 0.798442 
-43.6644 24.7384 -76.8271 125 126 114 0.451687 0.448426 0.771293 
-43.6991 26.3227 -77.1109 115 117 114 0.582579 0.0521923 0.811097 
-46.4848 29.6495 -76.0536 97 93 101 0.427438 0.280363 0.859473 
-44.5001 28.9247 -76.9058 103 111 98 0.470637 0.266951 0.840974 
-42.8247 27.4609 -77.5919 89 86 94 0.424804 0.0899422 0.900806 
-44.9439 25.5425 -76.341 89 92 90 0.520372 0.0659232 0.851391 
-43.973 27.6629 -76.9314 51 61 52 0.522463 0.178146 0.833844 
-45.3142 25.9972 -76.2584 64 64 68 0.463469 0.100019 0.88045 
-43.8554 28.1531 -77.0554 71 79 76 0.571384 0.128451 0.810568 
-45.1657 25.1164 -76.2513 105 102 111 0.435839 0.291073 0.851658 
-46.2249 27.0762 -75.5359 154 156 156 0.4788 0.535522 0.695678 
-43.0363 26.2133 -77.4361 134 128 133 0.540053 0.31065 0.782201 
-45.9514 24.7556 -75.7368 86 82 94 0.51807 0.132801 0.844966 
-44.3315 26.3192 -76.6067 106 118 100 0.681736 0.110911 0.723143 
-44.4555 26.6314 -76.6136 48 54 55 0.603491 -0.0322048 0.79672 
-42.7167 25.6527 -77.5048 136 131 135 0.539999 0.289794 0.790203 
-46.4083 26.2508 -75.8213 108 108 109 0.543982 0.192439 0.816731 
-45.0601 26.3391 -76.2039 56 59 61 0.371322 -0.483843 0.792474 
-45.0063 28.469 -76.5541 133 141 123 0.351705 0.499454 0.791738 
-44.9907 25.9427 -76.2191 105 116 109 0.318204 0.545264 0.775522 
-44.3582 27.375 -75.7912 32 48 43 0.625989 0.0438051 0.778601 
-44.426 30.3031 -77.2975 119 116 124 0.527362 0.0810232 0.845769 
-46.2327 27.4291 -75.8987 125 127 129 0.535271 0.332736 0.776384 
-45.14 24.5268 -76.1824 147 141 154 0.492682 0.0979684 0.864677 
-46.2405 27.3329 -75.7547 73 83 84 0.321425 0.189487 0.927783 
-44.7454 28.8403 -76.8004 70 73 66 0.321415 0.608912 0.725203 
-43.0089 26.9991 -77.5359 107 103 110 0.564792 0.200509 0.800504 
-44.5889 29.2037 -76.9957 80 85 80 0.388319 0.245489 0.888225 
-43.6294 28.3241 -77.2577 92 92 91 0.366846 0.0595959 0.928371 
-44.2992 27.5251 -74.5175 60 90 68 0.467844 0.431982 0.771047 
-46.5341 25.7796 -75.5361 54 57 53 0.558418 0.0403844 0.828576 
-44.0725 28.7877 -77.1043 118 122 115 0.552075 0.124473 0.824451 
-43.933 27.5508 -76.5704 40 49 49 0.576847 0.147566 0.803412 
-44.2333 28.918 -76.8929 102 109 97 0.45439 0.102695 0.884864 
-44.9434 28.9213 -76.7403 147 149 145 0.473309 0.367416 0.800615 
-44.9293 29.8687 -76.9763 109 108 112 0.511882 0.323714 0.79573 
-45.1464 29.7561 -76.8748 136 135 137 0.561864 0.238131 0.792213 
-44.3583 29.777 -77.1643 79 76 83 0.204682 0.027212 0.97845 
-45.1445 28.3772 -75.8027 98 121 105 0.133379 0.663898 0.735833 
-43.5827 26.3098 -77.2076 106 111 106 0.315807 0.134184 0.939287 
-42.8746 27.9886 -77.7078 65 62 70 0.544204 0.121096 0.830167 
-45.0599 29.5472 -76.874 115 115 117 0.520359 0.302093 0.798728 
-45.1734 25.983 -76.2524 80 83 85 0.467431 0.079533 0.880445 
-46.4608 25.6773 -75.554 76 79 76 0.615413 -0.123083 0.778535 
-46.0182 28.3135 -76.1346 79 88 87 0.564566 0.279911 0.776476 
-44.475 29.926 -77.094 139 137 143 0.434285 0.427827 0.792692 
-46.736 29.4596 -75.9035 48 44 54 0.409167 0.313438 0.856936 
-44.7042 29.4929 -77.0073 142 142 146 0.392588 0.222025 0.892513 
-46.3744 27.9054 -76.0585 76 88 89 0.493183 0.398778 0.773141 
-45.0896 28.219 -76.4549 112 122 104 0.467437 0.16265 0.868935 
-44.1904 26.4726 -76.4376 91 107 93 0.548414 -0.0844815 0.831928 
-44.2956 25.252 -76.3577 98 105 89 0.341401 0.0373609 0.939175 
-45.8918 24.9206 -75.8046 114 110 120 0.633734 0.107338 0.766068 
-45.0856 25.3729 -76.3169 100 99 105 0.400546 -0.562083 0.72362 
-45.4786 25.2478 -76.0911 81 77 89 0.429708 -0.308707 0.848558 
-43.4152 29.8118 -77.712 101 100 106 0.266334 -0.028229 0.963467 
-42.6659 25.477 -77.5515 83 78 83 0.582724 0.161115 0.796539 
-45.2043 29.4635 -76.7044 82 87 84 0.524002 0.126986 0.842198 
-44.3889 28.1046 -74.8334 85 115 95 0.460994 0.365286 0.808734 
-44.1381 27.759 -76.3917 35 49 41 0.668258 -0.196002 0.717645 
-44.8126 28.1566 -75.5633 77 106 84 0.036622 0.882997 0.467948 
-43.0543 27.0401 -77.4446 137 134 140 0.541661 0.317966 0.778139 
-46.342 24.4865 -75.5803 115 112 122 0.40773 0.080455 0.909551 
-44.9018 29.4798 -76.875 77 79 81 0.625859 0.165178 0.762245 
-44.4676 29.8774 -77.1855 82 80 86 0.527406 0.127103 0.840052 
-44.2929 27.9652 -75.6011 49 72 55 0.351606 0.619808 0.701577 
-45.7445 25.3893 -75.8545 113 114 121 0.506949 0.126374 0.852662 
-45.9706 25.4906 -75.7932 134 136 139 0.490322 0.170354 0.85473 
-43.4303 28.8635 -77.5362 91 89 94 0.588068 0.151132 0.794566 
-44.7135 24.8313 -76.4586 145 147 146 0.349381 0.295399 0.889197 
-46.8798 28.0039 -75.469 73 72 81 0.317678 0.0188347 0.948012 
-43.3924 28.3533 -77.4581 62 63 66 0.562616 0.0549925 0.824888 
-43.4194 28.2883 -77.3928 61 63 62 0.248992 0.0380235 0.967759 
-43.2141 28.8337 -77.5945 80 79 82 0.289761 0.0734061 0.95428 
-46.4438 25.9752 -75.4833 109 108 107 0.361616 0.18724 0.913332 
-46.3396 26.0629 -75.7438 96 96 98 0.573236 0.118752 0.81074 
-46.753 27.0495 -75.49 128 123 131 0.535218 0.369284 0.759717 
-42.6062 26.4519 -77.6957 77 72 78 0.496764 0.119511 0.859618 
-43.7414 28.5178 -77.4632 54 58 56 0.328248 -0.523596 0.786194 
-46.2445 25.6141 -75.6502 92 93 94 0.567718 0.121759 0.814169 
-45.2258 29.4308 -76.7819 70 73 71 0.605493 0.0733496 0.792463 
-44.3536 26.2772 -76.1933 78 90 72 0.232819 -0.395941 0.888272 
-45.6572 25.7771 -76.0754 95 93 103 0.463144 0.109058 0.879548 
-43.7711 25.462 -76.7101 64 70 56 0.583111 0.204627 0.786199 
-46.1606 26.9015 -75.7297 139 145 143 0.389628 0.115086 0.913753 
-45.2933 25.2434 -76.1188 145 145 152 0.492737 0.206437 0.845337 
-45.6263 26.5072 -76.0175 109 108 113 0.357193 -0.341863 0.86922 
-45.4804 29.6422 -76.4189 88 96 84 0.417706 0.433833 0.798318 
-46.4463 26.827 -75.7172 54 54 57 0.473478 -0.550439 0.68763 
-43.6099 27.2193 -77.115 71 73 80 0.57568 0.180754 0.797446 
-45.23 28.2204 -75.7882 82 109 91 0.740487 0.126643 0.660031 
-43.5628 28.759 -77.4526 108 108 111 0.348389 0.0427391 0.936375 
-44.6113 28.4295 -76.4837 122 135 108 0.0478012 0.88364 0.465721 
-43.5364 25.741 -76.5772 52 56 43 0.447371 0.510102 0.734613 
-44.9279 29.7395 -76.9124 109 109 112 0.537628 0.108685 0.836148 
-42.4611 25.7748 -77.668 117 111 118 0.529585 0.0990281 0.842457 
-42.9431 26.5303 -77.5293 79 76 81 0.464199 -0.290318 0.8368 
-45.7956 24.9751 -75.8453 113 109 119 0.441917 0.126465 0.888097 
-46.1933 26.4718 -75.8282 76 73 77 0.717629 -0.237116 0.654817 
-46.8296 28.4826 -75.7092 161 161 169 0.408033 0.0303714 0.912462 
-43.8782 26.8692 -77.1428 59 63 68 0.392355 0.503061 0.770057 
-43.6365 28.623 -77.3673 81 82 83 0.563587 -0.0375724 0.825202 
-45.6397 27.2211 -76.1713 92 96 97 0.352032 -0.503133 0.789259 
-46.2805 29.2562 -76.0187 80 82 84 0.46101 0.275989 0.843386 
-44.855 28.3716 -76.3282 120 132 110 0.159628 0.716044 0.679558 
-44.7989 26.8388 -75.992 37 43 47 0.380048 -0.593928 0.709094 
-44.4305 27.5502 -74.3562 129 162 138 0.386972 0.53719 0.749453 
-46.8314 27.5534 -75.7272 94 94 101 0.651647 0.15573 0.742364 
-46.2693 27.4298 -75.7226 107 108 111 0.448302 0.578292 0.681618 
-43.279 25.0478 -77.1532 75 71 71 0.718647 -0.176214 0.672678 
-44.5105 25.3043 -76.4471 107 118 100 0.571469 -0.147717 0.807219 
-45.2632 29.1147 -76.6693 96 103 93 0.607141 0.113196 0.78649 
-45.9337 29.2517 -76.3273 103 110 101 0.277003 0.0360228 0.960194 
-46.3666 29.2649 -76.054 102 102 104 0.601978 0.263859 0.753658 
-45.6779 29.0568 -76.4505 142 151 144 0.607436 0.0703649 0.791246 
-43.1999 29.5217 -77.717 118 112 121 0.58972 0.0850696 0.803115 
-42.3985 25.6026 -77.6607 133 127 134 0.530868 0.099268 0.84162 
-42.4627 25.7298 -77.579 157 149 155 0.579243 0.131848 0.804421 
-43.3609 26.5738 -77.2867 145 143 146 0.454518 0.145734 0.878735 
-45.0895 25.4587 -76.1984 112 119 118 0.500163 0.119635 0.857627 
-46.0199 28.5461 -76.0287 139 147 148 0.466802 0.443872 0.764901 
-42.912 26.6484 -77.5191 125 120 126 0.427637 0.269366 0.862884 
-44.507 28.4736 -76.4031 120 137 105 0.401332 0.596217 0.695311 
-42.9956 25.0218 -77.2033 127 124 123 0.493365 0.119386 0.86159 
-44.2382 28.4842 -76.9697 98 111 91 0.456125 0.0309466 0.889377 
-44.0043 28.3325 -76.0113 133 153 119 0.356841 0.584958 0.728346 
-43.9734 27.7683 -76.5307 34 45 40 0.641677 -0.547362 0.537257 
-42.5797 25.4914 -77.5515 90 85 90 0.526238 0.0989385 0.844562 
-44.1682 28.2513 -76.5743 82 101 78 0.329203 -0.491419 0.806308 
-45.4212 29.723 -76.5666 135 142 133 0.186543 -0.0816887 0.979045 
-44.2534 24.9137 -76.6793 133 140 126 0.371717 0.236547 0.897704 
-45.1812 27.0375 -76.3304 27 31 37 0.611229 -0.268306 0.744588 
-45.1735 29.1244 -76.7273 137 144 135 0.466666 0.106383 0.878012 
-44.6762 30.1972 -77.0572 104 100 107 0.390673 0.49442 0.776482 
-43.4018 29.3021 -77.6241 124 122 129 0.405122 -0.31578 0.857997 
-46.0194 28.9536 -76.2676 106 109 107 0.573832 0.0178893 0.818777 
-45.1778 25.3087 -76.2381 106 104 113 0.338999 0.0319811 0.940243 
-43.2732 29.3076 -77.644 106 103 111 0.777441 -0.242461 0.580343 
-42.638 27.0236 -77.7351 132 127 135 0.419657 0.265126 0.868099 
-43.5565 28.1385 -77.385 77 78 80 0.455606 -0.210625 0.864905 
-47.2369 29.1666 -75.6786 70 65 76 0.616179 0.0917713 0.782241 
-44.18 27.6083 -74.8339 106 134 116 0.717901 0.0353994 0.695245 
-44.0973 29.3623 -77.1075 99 98 102 0.454993 0.204374 0.866725 
-46.0846 27.5014 -76.0385 99 125 109 0.580214 0.157422 0.799106 
-43.8368 27.0426 -77.0844 44 49 55 0.468396 0.366084 0.804107 
-46.2845 25.6977 -75.6523 81 82 82 0.525302 0.30312 0.795095 
-44.7224 29.7903 -77.0411 83 81 86 0.545511 0.130864 0.827824 
-46.8314 26.7572 -75.5551 145 140 145 0.4046 0.586257 0.701856 
-44.1936 27.9572 -75.9403 44 64 46 0.618883 0.0674884 0.782578 
-45.8158 28.7939 -76.3405 112 115 112 0.597729 0.235658 0.76628 
-46.3873 25.5223 -75.5897 89 92 90 0.515776 0.235563 0.823702 
-43.7972 28.5678 -77.2523 70 72 71 0.554341 0.0694699 0.829385 
-44.9441 29.0919 -76.9205 95 117 99 0.34416 -0.614921 0.709525 
-44.885 29.2572 -76.9131 144 147 146 0.373353 -0.552693 0.745076 
-42.9392 27.2422 -77.5714 102 98 106 0.577729 0.122014 0.807057 
-44.2274 28.4102 -76.7124 95 112 85 0.581422 0.35667 0.731256 
-46.1258 26.9993 -75.6676 148 155 151 0.455916 0.512284 0.727808 
-45.8494 27.7342 -75.9159 91 121 101 0.329786 0.0318326 0.943519 
-46.3104 25.9371 -75.6909 128 128 128 0.554333 0.130864 0.821942 
-45.3189 27.9883 -75.2675 90 115 98 -0.234423 0.970831 0.0503212 
-45.8213 29.9337 -76.5103 130 133 124 0.493968 0.250831 0.832514 
-46.1788 25.8052 -75.7366 122 122 123 0.557861 0.1186 0.821417 
-44.451 28.6589 -76.7837 150 159 141 0.350909 0.598993 0.719771 
-45.4885 29.5362 -76.4941 107 114 104 0.579237 0.0640434 0.81264 
-46.4389 25.8878 -75.5676 123 123 122 0.555423 0.143669 0.819063 
-46.3703 25.9 -75.676 122 122 121 0.561217 0.118691 0.819114 
-46.2214 26.7112 -75.8106 75 76 82 0.362203 0.090214 0.927723 
-44.0486 26.4321 -76.7395 79 87 76 0.484478 0.112902 0.867487 
-45.2039 25.3022 -76.2448 104 101 111 0.466666 0.106383 0.878012 
-45.9518 25.8326 -75.9024 125 123 129 0.498744 0.265686 0.825025 
-47.2469 29.3014 -75.6059 86 81 92 0.48958 0.0860646 0.8677 
-43.8427 26.7722 -77.2171 46 48 56 0.386204 -0.141842 0.911442 
-43.21 26.6756 -77.3234 120 118 123 0.571429 0.15748 0.8054 
-46.3244 26.1847 -75.6811 109 107 109 0.555442 0.124571 0.822172 
-46.4219 26.4223 -75.5499 165 162 163 0.558883 0.160323 0.813601 
-43.7991 29.4165 -77.4529 89 87 93 0.331934 -0.52436 0.784134 
-44.4807 25.7072 -76.3603 75 98 67 0.275294 -0.352674 0.894334 
-44.4951 27.3351 -74.5663 121 151 131 0.734418 -0.233323 0.637331 
-46.5074 25.6538 -75.5585 70 74 71 0.588365 0.0435306 0.807423 
-44.02 26.4697 -76.9364 72 78 73 0.484633 0.110079 0.867764 
-44.4245 28.3859 -75.9964 87 108 78 0.0527456 0.771226 0.634373 
-43.9229 27.7417 -76.0287 30 44 34 0.63836 0.199391 0.743465 
-44.4789 27.1829 -74.6122 33 60 43 0.736914 -0.226863 0.636781 
-44.142 27.6887 -75.813 35 52 43 0.581328 0.160729 0.797636 
-44.1263 25.1342 -76.4387 109 115 101 0.5474 -0.223586 0.806451 
-45.1585 28.2577 -76.1065 106 115 102 -0.0935386 0.923186 0.372799 
-44.6863 28.3613 -76.0655 33 50 27 0.085526 0.778432 0.621876 
-43.9157 28.8251 -77.2599 125 126 127 0.571792 0.0940924 0.814985 
-44.6837 28.4222 -76.1019 72 88 63 -0.0740048 0.921696 0.380788 
-43.5564 25.3364 -76.983 63 64 56 0.450479 -0.154988 0.879231 
-42.3229 25.7805 -77.7974 117 111 118 0.460408 -0.0281883 0.88726 
-46.3753 24.9713 -75.5654 71 69 79 0.419461 0.153182 0.894756 
-43.8991 25.5863 -76.4678 122 134 112 0.141237 0.801336 0.581303 
-44.6808 25.9452 -76.0605 114 130 114 0.486494 0.328027 0.809767 
-43.4479 26.2054 -77.2354 98 101 95 0.376684 0.0710472 0.923613 
-43.432 25.1832 -77.063 67 66 62 0.611911 -0.250113 0.750339 
-46.078 27.097 -75.7271 116 117 121 0.265993 0.0886644 0.959889 
-44.6975 28.4695 -76.3385 76 89 62 -0.118414 0.932344 0.341633 
-44.5701 28.3544 -75.9722 74 93 69 0.017852 0.82531 0.564397 
-44.1011 28.405 -75.957 107 127 94 0.082498 0.777218 0.6238 
-45.2086 26.0009 -76.2321 59 64 68 0.318204 0.545264 0.775522 
-44.4341 28.1692 -75.6871 27 49 30 0.122738 0.782268 0.610731 
-44.5692 28.454 -76.2271 114 131 101 -0.0740048 0.921696 0.380788 
-43.9759 27.4253 -76.421 39 47 50 0.684952 -0.16628 0.70936 
-44.3411 28.1755 -75.718 42 63 43 0.119823 0.782549 0.61095 
-44.9144 29.6376 -76.8807 134 137 139 0.136146 0.00774817 0.990658 
-43.9055 27.1339 -77.2193 35 39 49 0.387651 -0.750767 0.53486 
-45.9829 29.7622 -76.2962 125 133 122 0.533011 0.13362 0.835491 
-47.0147 29.3601 -75.7732 69 64 74 0.562351 0.034713 0.82617 
-44.284 28.062 -75.6606 57 78 61 0.152185 0.757913 0.634356 
-42.4353 26.2583 -77.7805 91 86 92 0.489078 0.113305 0.86485 
-43.4574 28.5092 -77.4661 60 60 62 0.660278 0.123709 0.740763 
-43.4963 25.9042 -77.0331 108 109 103 0.564468 0.140747 0.813367 
-43.2476 28.3958 -77.5269 64 63 67 0.667033 0.133407 0.732987 
-46.3063 27.7299 -75.7824 80 78 87 0.425557 0.276078 0.86179 
-45.9867 29.8459 -76.3961 121 126 116 0.447597 0.313474 0.837491 
-43.3895 25.0063 -77.046 97 92 90 0.718256 -0.179181 0.672312 
-43.3023 29.6782 -77.7089 65 62 71 0.572215 0.125034 0.810516 
-44.815 26.6483 -76.2731 40 44 48 0.535316 0.130529 0.834506 
-44.9421 29.6012 -76.7575 80 82 84 0.137934 -0.0213069 0.990212 
-42.6357 25.7413 -77.5522 82 77 81 0.186726 0.0487627 0.981201 
-47.2217 27.9528 -75.603 95 92 100 0.434883 -0.0613471 0.898395 
-43.6802 28.521 -77.2186 83 81 82 0.239525 0.608989 0.756148 
-45.6266 26.227 -76.143 107 106 114 0.458615 0.0762048 0.885362 
-45.7551 29.9231 -76.482 121 125 114 0.551941 0.300625 0.777808 
-42.7468 26.7199 -77.5676 127 121 128 0.579095 0.154126 0.800558 
-44.4226 26.3057 -76.7465 110 121 105 0.314088 0.527732 0.789207 
-44.2686 27.5522 -74.4613 59 90 68 0.38392 0.53422 0.753136 
-43.7441 25.2651 -76.8546 94 97 86 0.537582 -0.0261229 0.842807 
-44.2124 26.7172 -76.8117 51 57 58 0.484099 -0.153566 0.861432 
-46.7176 26.7381 -75.5291 69 68 72 0.348293 0.0295599 0.93692 
-46.801 27.326 -75.7151 137 137 143 0.402608 0.0330006 0.914778 
-46.753 29.2131 -76.0454 107 103 111 0.607047 0.158164 0.778767 
-45.6896 26.9852 -76.0986 56 59 61 0.367222 -0.509581 0.778123 
-43.6508 29.5791 -77.3618 73 73 77 0.405367 -0.352153 0.843603 
-46.4977 25.6543 -75.5477 76 78 75 0.587557 0.0640195 0.806646 
-44.8518 29.4395 -76.8463 82 85 86 0.394556 0.279666 0.875279 
-46.3002 26.0925 -75.7555 88 88 91 0.556576 0.127763 0.820914 
-44.9088 28.4022 -74.8594 86 113 94 -0.054129 0.928114 0.368341 
-43.8219 25.8635 -76.8678 56 62 49 0.606554 0.242935 0.757017 
-43.5175 28.0155 -77.4031 123 125 127 0.436416 -0.186616 0.880179 
-46.7425 27.8322 -75.7432 87 90 95 0.345172 -0.442892 0.827468 
-44.58 27.4051 -74.4143 95 126 105 0.736432 -0.219528 0.639902 
-46.5823 28.0634 -75.9049 130 134 138 0.509158 0.407654 0.758008 
-46.4119 27.966 -75.8963 142 150 152 0.353289 -0.0926881 0.930911 
-45.2491 28.3603 -76.4192 151 156 145 0.509168 0.392043 0.766192 
-45.9133 28.3402 -76.2293 97 109 105 0.272354 0.0410396 0.961322 
-45.968 26.2957 -75.9429 102 101 108 0.359652 0.125396 0.924622 
-44.1002 29.7218 -77.3683 101 98 106 0.552819 0.0318667 0.832692 
-43.5728 29.253 -77.4314 75 74 80 0.568774 -0.0319849 0.821872 
-43.9983 25.1328 -76.6493 122 130 112 0.51423 -0.323185 0.79443 
-45.522 29.4612 -76.5381 129 134 125 0.604398 0.119697 0.787639 
-46.2572 29.0792 -76.062 68 70 72 0.505224 0.0176083 0.862809 
-44.3454 29.0626 -76.9902 103 109 101 0.446678 0.0994173 0.889154 
-46.1358 29.4595 -76.2515 80 85 80 0.416924 0.303077 0.856924 
-45.5531 25.1608 -76.0648 120 115 128 0.418336 -0.310279 0.853652 
-44.0097 26.0146 -76.7678 112 121 104 0.20178 0.774772 0.599177 
-44.8065 27.0044 -74.3621 75 100 83 0.767741 -0.27702 0.577784 
-46.8464 29.1719 -75.9165 78 75 85 0.607047 0.158164 0.778767 
-44.9413 25.5184 -76.2821 113 121 115 0.54563 -0.037486 0.837188 
-42.7917 26.6682 -77.5646 100 96 101 0.509103 0.126188 0.851405 
-42.7469 26.2215 -77.5398 93 89 94 0.428133 0.0900603 0.899217 
-46.4695 27.0787 -75.6567 61 62 68 0.651004 0.107763 0.751386 
-46.7705 28.6702 -75.7466 126 122 133 0.652721 -0.00137996 0.757597 
-46.1151 28.9717 -76.2019 97 100 100 0.321268 0.140811 0.936461 
-43.5002 27.5726 -77.2526 139 141 145 0.357286 0.059328 0.932109 
-43.6022 28.1124 -77.2937 81 84 86 0.56306 0.0969794 0.820706 
-44.8124 24.7078 -76.3765 123 123 131 -0.00680523 0.55939 0.828877 
-45.0097 29.0006 -76.2769 111 123 108 0.307692 0.55002 0.776405 
-45.9249 27.4634 -75.5772 78 98 89 0.322472 -0.349723 0.879606 
-45.2301 28.1029 -75.7641 79 100 84 -0.318465 0.942071 0.105267 
-42.4021 25.3276 -77.6075 163 159 162 0.340742 -0.290152 0.894263 
-44.5822 29.5739 -77.0323 149 147 153 0.397568 0.199512 0.89562 
-46.1911 24.1898 -75.6107 101 97 109 0.452885 -0.227195 0.862136 
-43.2125 26.5991 -77.525 135 132 136 0.547459 -0.421758 0.722778 
-46.6714 29.6003 -76.0962 88 86 93 0.530739 0.178918 0.828435 
-43.7738 25.8533 -76.6238 120 127 110 0.201512 0.770668 0.604536 
-43.3285 26.8207 -77.4461 59 55 63 0.428456 -0.412409 0.803956 
-45.4393 26.4236 -76.2523 66 65 71 0.455396 0.0733617 0.887261 
-43.9776 26.1826 -76.811 105 111 95 0.431535 0.0639815 0.899825 
-46.8524 29.3037 -75.9026 81 77 87 0.590187 0.138255 0.79534 
-46.2371 24.2061 -75.6089 105 101 113 0.517504 0.284706 0.806928 
-46.3495 26.4536 -75.6679 153 151 153 0.395189 0.0714848 0.915814 
-46.4396 26.2307 -75.5871 113 112 112 0.388969 0.0826729 0.917534 
-45.6884 29.7253 -76.5349 70 73 64 0.397513 0.426248 0.812586 
-44.1432 29.7859 -77.2725 100 98 105 0.443343 0.226932 0.86715 
-43.9827 27.9562 -77.0354 45 53 52 0.549999 0.0431645 0.834049 
-42.6725 27.2082 -77.6637 58 54 62 0.431562 0.236081 0.870643 
-44.0449 27.6409 -76.5313 52 61 60 0.618106 -0.684038 0.387347 
-46.2494 28.0021 -75.9198 51 72 63 0.370313 -0.56281 0.738994 
-45.8321 29.7583 -76.354 107 114 101 0.528932 0.263686 0.80666 
-44.8135 25.7477 -76.3657 93 101 86 0.371772 -0.591232 0.715702 
-44.2847 30.2201 -77.368 88 85 92 0.213975 0.0495648 0.975581 
-45.0042 30.0853 -76.9671 114 111 116 0.410792 0.327084 0.851038 
-46.4677 25.3107 -75.5075 133 138 139 0.43938 0.148381 0.885962 
