ply
format ascii 1.0
comment Created by CloudCompare v2.11 alpha (Anoia)
comment Created 15/10/2019 14:54
obj_info Generated by CloudCompare!
element vertex 745
property float x
property float y
property float z
property uchar red
property uchar green
property uchar blue
property float nx
property float ny
property float nz
end_header
-37.0351 9.17591 -78.6782 120 121 121 0.455072 0.0281903 0.890008 
-33.8997 8.98302 -79.8499 57 55 63 0.633977 0.17568 0.753134 
-36.623 10.2368 -78.9352 87 86 89 0.536781 0.358395 0.763819 
-35.8813 7.4283 -79.0606 86 92 81 0.219778 0.0201959 0.975341 
-34.7191 11.0245 -80.0537 65 58 69 0.253882 0.0880295 0.963221 
-34.6264 10.3474 -79.8316 88 86 91 0.328955 0.0503108 0.943004 
-34.4038 8.9482 -79.8142 46 44 51 0.374983 0.326006 0.867818 
-35.8058 10.081 -79.4539 127 131 125 0.274261 0.0463363 0.960538 
-34.009 9.949 -80.2533 88 85 95 0.548585 0.105664 0.829391 
-34.6688 11.4944 -80.0727 120 112 123 0.233635 0.125208 0.964229 
-35.9147 7.96018 -79.1758 93 94 93 0.542254 -0.0605634 0.838029 
-34.2061 10.8058 -80.2048 84 78 90 0.270783 0.0997621 0.957457 
-36.6304 8.26159 -78.2232 86 93 82 0.503727 0.110504 0.856766 
-33.9893 9.71238 -80.1763 87 85 94 0.480891 0.0479521 0.875468 
-36.21 5.11725 -78.6828 89 80 93 0.523848 0.201947 0.827527 
-35.2896 10.2712 -79.6802 97 95 99 0.24386 0.148952 0.958304 
-35.5156 10.7931 -79.6839 92 96 90 0.212287 -0.196266 0.957295 
-34.0523 10.8644 -80.3209 113 106 118 0.440632 0.108398 0.891119 
-35.647 10.4339 -79.6193 104 101 105 0.296942 0.106899 0.948893 
-36.0392 8.92765 -79.0034 113 127 105 0.427984 0.0697355 0.901092 
-33.2647 9.41057 -80.574 99 96 107 0.480743 0.209477 0.851473 
-37.6954 10.7719 -78.5355 89 82 94 0.677056 0.127041 0.724883 
-35.5146 7.55158 -79.337 71 72 71 0.458532 0.112149 0.881573 
-34.0334 6.10154 -79.7416 114 105 110 0.270917 0.145468 0.951548 
-36.1557 8.0734 -79.0409 105 115 101 0.515007 0.259838 0.816855 
-36.6738 10.0887 -78.8539 84 84 85 0.540974 0.325869 0.775343 
-34.8835 10.958 -79.9563 95 88 99 0.257231 0.138509 0.956372 
-34.3381 10.519 -80.1899 72 66 77 0.303481 0.0794522 0.949519 
-34.8048 7.07254 -79.5215 66 64 68 0.362892 0.0704516 0.929164 
-34.6999 8.37295 -79.5573 63 63 63 0.624077 0.175474 0.761404 
-35.0599 10.8826 -79.8796 80 73 83 0.265753 0.116513 0.956974 
-35.1646 7.18528 -76.502 142 142 138 0.283946 -0.176952 0.942371 
-35.5548 5.08255 -78.9148 94 90 98 0.518927 -0.145535 0.842338 
-37.2117 10.0809 -78.6582 85 80 88 0.507264 0.151444 0.84838 
-36.1698 11.0353 -79.3598 120 115 120 0.311219 0.0499487 0.949025 
-36.482 6.1109 -78.7845 124 119 128 0.515191 0.0837363 0.852975 
-32.3294 5.90244 -80.6463 85 76 89 0.610975 0.0947813 0.785956 
-36.9377 8.73359 -78.7476 107 110 104 0.455523 0.102951 0.884251 
-35.156 10.6225 -79.8019 98 92 101 0.258997 0.144772 0.954967 
-35.9438 7.54082 -79.2011 95 97 91 0.583356 0.082102 0.808056 
-33.4214 9.78405 -80.458 76 71 82 0.479036 0.216095 0.85078 
-36.3124 8.21008 -79.0337 101 109 96 0.387591 0.31712 0.865568 
-34.1207 9.37595 -80.1028 68 67 76 0.543205 0.105744 0.832914 
-36.5547 5.59186 -78.5461 59 52 66 0.440568 0.206192 0.873719 
-33.9226 8.69066 -80.1635 47 45 55 0.449658 -0.197375 0.87112 
-36.6574 6.62088 -78.6224 107 105 108 0.352846 0.0243785 0.935364 
-33.7581 9.49275 -80.3426 145 140 153 0.187535 0.365048 0.911905 
-34.3164 9.89396 -77.2474 91 98 89 0.420553 0.4991 0.75765 
-35.3022 7.59138 -79.3691 95 94 96 0.527274 0.136592 0.838645 
-35.9283 8.15621 -79.1012 116 119 109 0.460108 0.0999011 0.882225 
-33.8061 7.00185 -80.0359 92 87 99 0.455479 0.148934 0.8777 
-35.5644 10.6563 -79.5817 119 122 113 0.166556 -0.0984749 0.981102 
-37.534 7.37892 -78.3323 103 97 108 0.546557 0.105832 0.830708 
-35.9154 11.6347 -79.5259 81 72 84 0.587687 0.0880809 0.80428 
-36.4461 8.88134 -78.9026 68 75 69 0.549592 0.156388 0.820665 
-33.4458 7.52175 -80.2927 53 49 61 0.412197 0.275305 0.868505 
-34.2481 6.01065 -79.6676 138 130 129 0.631476 0.0676067 0.772443 
-33.2385 7.75395 -80.3454 47 44 56 0.479152 0.103793 0.871573 
-34.3979 6.33467 -79.3902 103 98 98 0.386881 0.289782 0.875414 
-33.2274 8.75898 -80.5701 57 53 66 0.307932 -0.0187003 0.951224 
-34.3243 9.26751 -79.8111 53 52 57 0.509616 0.0956422 0.85507 
-36.6081 8.23637 -78.7831 54 54 58 0.226772 -0.285929 0.931031 
-36.8786 11.1383 -78.9755 113 103 116 0.558612 0.16324 0.813207 
-37.4709 8.6879 -78.372 80 78 85 0.482732 0.0948477 0.870617 
-37.0373 11.245 -78.8602 104 94 107 0.549592 0.156388 0.820665 
-37.541 10.0772 -78.5418 102 96 106 0.46971 0.0766589 0.879486 
-36.2575 5.38477 -78.7182 95 87 99 0.523848 0.201947 0.827527 
-33.9279 9.41301 -77.175 87 99 83 0.645394 0.0498649 0.76222 
-32.9805 7.79367 -80.5059 75 72 81 0.180592 0.0126529 0.983477 
-34.0503 9.82685 -80.2288 123 121 127 0.130653 -0.00109793 0.991428 
-38.4092 11.3491 -78.1313 102 92 105 0.567625 0.170137 0.805516 
-35.6664 10.6793 -79.5559 114 109 115 0.450032 0.0995399 0.887447 
-35.14 12.053 -79.865 125 117 127 0.402398 0.0947628 0.910547 
-36.5616 9.8225 -78.9714 92 94 91 0.418813 0.0277447 0.907649 
-36.943 7.7525 -78.4099 76 71 79 0.151563 0.131848 0.979615 
-34.169 5.34171 -79.368 91 88 80 0.49674 -0.157719 0.853449 
-34.9924 8.44424 -79.6567 81 81 83 0.49959 0.0598394 0.864193 
-35.5703 7.80648 -79.3879 108 109 107 0.374628 0.0246295 0.926848 
-34.6445 7.7911 -77.1648 98 112 93 0.736694 -0.139537 0.661674 
-34.1105 9.87206 -80.1238 84 89 87 0.177561 0.0126011 0.984029 
-34.7484 11.6795 -80.0728 109 100 113 0.281316 0.0894507 0.955437 
-33.0034 8.63552 -80.5352 54 51 63 0.28243 0.0838262 0.955618 
-35.6453 8.65548 -79.119 106 118 95 0.524002 0.126986 0.842198 
-36.054 7.86365 -79.0904 86 90 82 0.114261 0.0509083 0.992146 
-37.2492 5.94807 -78.328 89 87 93 0.307557 -0.136842 0.941638 
-33.0777 7.0028 -80.4172 85 77 89 0.476814 0.106749 0.872498 
-37.1537 5.96262 -78.3475 114 106 117 0.54818 0.0754637 0.832949 
-34.1702 5.7877 -79.5439 114 107 102 0.552997 0.199566 0.80893 
-36.2193 7.06839 -78.9955 78 79 81 0.480734 0.0201989 0.876634 
-33.6092 9.55278 -80.4284 133 128 140 0.161863 0.40251 0.900992 
-36.1645 5.58767 -78.8386 90 83 95 0.164165 -0.0241082 0.986138 
-35.2153 6.22815 -79.353 100 98 100 0.473034 0.076746 0.877695 
-36.7025 7.44027 -78.7778 117 117 119 0.593107 -0.0822557 0.800911 
-35.8898 10.2296 -78.9358 100 96 99 0.337173 0.546897 0.766301 
-33.3959 9.29857 -80.3832 65 61 72 0.678263 0.130262 0.723181 
-37.9197 11.2179 -78.3593 101 92 105 0.375223 0.090758 0.922481 
-35.5004 10.4075 -79.6556 85 82 87 0.237457 0.183794 0.953852 
-33.8933 7.94234 -80.0664 50 47 58 0.335365 0.106401 0.93606 
-34.7967 8.05486 -79.3716 69 69 73 0.525522 0.232709 0.818335 
-34.7929 6.67982 -79.5181 62 59 64 0.53293 0.0991163 0.840334 
-36.0776 9.75492 -79.2531 95 97 94 0.305658 0.0212089 0.951905 
-33.1178 9.25008 -80.5794 75 71 83 0.456048 0.158815 0.87567 
-35.1152 10.3309 -79.7963 109 104 113 0.246013 0.176108 0.953133 
-37.2861 8.35151 -78.5313 85 81 87 0.239698 0.125679 0.962678 
-34.0595 12.4019 -80.5143 107 98 112 0.417851 0.144037 0.897025 
-37.342 6.51646 -78.3972 88 81 94 0.527238 -0.0838465 0.845571 
-34.334 9.10319 -80.0312 75 73 82 0.222036 0.295577 0.929158 
-38.3477 11.5321 -78.234 93 85 98 0.492717 0.190198 0.84915 
-36.9479 6.11026 -78.49 69 65 74 0.435798 0.0669407 0.897552 
-32.7941 8.1221 -80.5619 96 90 103 0.345974 0.034726 0.937601 
-37.6401 9.04436 -78.3927 96 91 100 0.439529 0.108127 0.891697 
-36.3579 11.2289 -79.2837 108 99 110 0.550824 0.149955 0.82104 
-37.3112 7.5341 -78.3412 85 82 87 0.486309 0.0452062 0.872617 
-33.4722 8.90355 -80.2899 64 61 72 0.510726 0.204594 0.835045 
-34.8039 11.8821 -80.031 99 90 102 0.288159 0.0571241 0.955877 
-34.1353 7.17606 -78.9228 51 49 54 0.531881 -0.439092 0.724087 
-33.4513 9.35752 -80.3825 89 84 97 0.217411 0.287544 0.932765 
-34.308 8.87965 -76.1445 106 123 97 0.272361 0.660993 0.699219 
-35.981 5.83441 -78.909 79 75 83 0.507273 0.0923606 0.856822 
-36.0256 10.3803 -79.3992 85 82 83 0.587834 0.0852143 0.804481 
-35.2162 7.75354 -79.4375 83 81 84 0.420036 0.0956517 0.902453 
-33.4837 8.90031 -80.3328 66 62 75 0.2379 0.297731 0.924532 
-36.9852 8.71199 -78.7309 92 91 95 0.398491 0.376441 0.836359 
-33.6584 9.35563 -80.3201 63 60 70 0.204317 0.279373 0.938192 
-38.5357 11.3119 -78.0658 100 91 103 0.515496 0.177809 0.838241 
-35.0714 9.48989 -79.7225 58 58 59 0.519146 0.136002 0.843795 
-34.4542 8.25844 -79.3876 61 61 66 0.573444 0.15721 0.804019 
-33.4694 5.72233 -79.9826 123 117 125 0.484062 0.128602 0.865532 
-33.5747 7.91273 -80.2476 68 65 77 0.372731 0.150499 0.915653 
-33.2451 8.77751 -80.4396 56 51 65 0.241367 0.208639 0.94774 
-36.4396 5.71895 -78.6737 87 81 93 0.537186 0.0840689 0.839264 
-37.1713 10.0159 -78.6804 138 134 141 0.455523 0.102951 0.884251 
-35.0786 10.5066 -79.8054 73 68 75 0.258997 0.144772 0.954967 
-33.2649 8.3302 -80.3674 70 67 80 0.296408 0.118297 0.947707 
-37.0644 6.40394 -78.4486 78 72 82 0.252954 -0.00599417 0.96746 
-36.7992 11.399 -78.9814 59 54 62 0.229091 -0.0999898 0.968256 
-34.2478 8.38036 -79.9823 75 72 82 0.446667 0.00922322 0.894653 
-35.3442 9.37428 -79.4726 99 104 93 0.464045 0.178252 0.867691 
-34.8007 5.54994 -79.2676 117 123 103 0.321589 0.450224 0.832994 
-36.0417 4.93164 -78.7127 96 88 100 0.399188 0.470298 0.787063 
-37.084 7.43243 -78.4504 97 92 100 0.484163 0.0565546 0.873148 
-34.4751 12.1411 -80.1953 100 94 105 0.497755 0.129155 0.857647 
-33.9321 6.94742 -79.9094 70 66 77 0.531562 0.14283 0.83489 
-32.6284 6.69705 -80.6415 68 60 72 0.572215 0.0579279 0.818055 
-33.0269 8.97289 -80.5116 80 77 88 0.405796 0.187626 0.894497 
-36.2304 10.6348 -79.3393 84 80 83 0.543012 0.136857 0.828498 
-34.4886 6.47021 -79.7051 72 66 72 0.423371 0.0957791 0.900879 
-37.4114 7.42379 -78.4128 67 63 72 0.465672 0.0092869 0.884909 
-34.4851 11.6516 -80.0222 131 128 133 0.493532 -0.116548 0.861883 
-33.3234 7.73993 -79.9159 60 57 68 0.252483 0.364698 0.896241 
-34.6689 8.20411 -79.622 75 77 78 0.662435 0.0181298 0.7489 
-36.2326 10.7387 -79.2318 112 105 114 0.209693 0.706744 0.675678 
-35.9409 10.8097 -79.4622 89 82 91 0.4199 0.45881 0.783057 
-36.1122 10.728 -79.3176 66 59 68 0.339585 0.609304 0.716541 
-37.4129 10.1713 -78.5366 95 88 98 0.645577 0.175512 0.743253 
-33.8753 9.79138 -80.3365 104 101 110 0.244607 0.325661 0.913298 
-35.7437 6.4305 -79.1112 75 74 77 0.515128 0.0747995 0.853843 
-34.9866 10.1445 -79.766 109 104 110 0.332857 0.0424103 0.942023 
-33.1402 9.36568 -80.5367 80 76 88 0.417216 0.086748 0.904657 
-36.7082 8.98912 -78.8027 67 71 65 0.442914 0.0474067 0.89531 
-34.5572 8.54419 -79.862 53 53 60 0.590085 -0.187546 0.785255 
-37.0839 8.64374 -78.7251 102 99 105 0.376983 0.40853 0.831256 
-34.4278 10.9341 -80.1132 70 67 73 0.409961 0.143274 0.90078 
-33.5756 6.44096 -80.1286 143 137 146 0.457169 0.244532 0.855103 
-34.6674 11.2019 -80.045 90 87 93 0.409961 0.143274 0.90078 
-35.5178 9.41184 -79.2117 121 123 112 0.488968 0.240652 0.838449 
-34.5712 9.06618 -79.8645 84 80 89 0.529705 0.124036 0.839064 
-34.6555 9.3678 -79.8148 115 111 118 0.52841 0.123732 0.839925 
-37.5215 11.2308 -78.608 90 82 94 0.484437 0.189303 0.854099 
-34.4229 9.86945 -80.1687 72 72 77 0.225603 0.0349865 0.973591 
-38.1906 10.663 -78.2008 97 88 100 0.375586 0.0570678 0.925029 
-34.6274 6.28749 -79.6022 116 112 113 0.312929 0.283546 0.906464 
-33.6973 7.63346 -80.022 64 61 72 0.457179 0.139894 0.878303 
-34.0783 11.8652 -80.3275 92 85 97 0.446687 0.142193 0.883319 
-35.5085 7.13953 -79.2999 97 97 93 0.459905 0.106132 0.881603 
-34.4613 8.58443 -79.9025 31 27 35 0.398444 0.0715848 0.914395 
-36.5939 6.58117 -78.8047 62 59 67 0.556739 0.0262482 0.830273 
-37.2436 7.601 -78.364 72 70 75 0.286846 0.0518092 0.956575 
-36.7759 6.22675 -78.4349 49 46 53 0.160484 0.186162 0.969324 
-33.3669 6.28313 -80.1792 136 129 139 0.47033 0.172504 0.865466 
-34.2439 8.84398 -76.0624 124 142 115 0.410231 0.432754 0.802767 
-34.5903 8.28257 -79.7848 63 61 68 0.365472 0.101897 0.925228 
-36.6342 5.04478 -78.5962 62 59 68 0.322512 0.0692029 0.944032 
-36.0087 7.97393 -79.1364 86 92 80 0.470097 0.0422406 0.881603 
-36.127 6.74147 -79.0181 96 97 100 0.520504 0.0747608 0.85058 
-35.3867 11.0719 -79.7073 81 75 83 0.330558 0.103049 0.938143 
-34.5055 10.1679 -80.1259 64 60 68 0.432025 0.183061 0.883087 
-35.6559 8.13474 -79.2465 86 87 82 0.36455 0.0761149 0.928068 
-34.4113 7.23691 -79.6631 41 38 48 0.408707 0.115777 0.905292 
-38.2055 10.261 -78.1822 107 99 112 0.68347 0.199926 0.702067 
-36.8975 5.33204 -78.5067 90 81 95 0.542035 0.140309 0.82856 
-33.5095 6.67018 -80.19 125 119 130 0.511612 0.120294 0.850754 
-34.3155 7.53532 -79.7624 44 41 52 0.518561 0.0928553 0.849984 
-35.2565 10.6073 -79.7335 101 95 103 0.255401 0.179727 0.949984 
-35.2442 9.32642 -79.5001 111 113 104 0.525232 0.218974 0.822302 
-36.0394 6.66439 -79.0032 62 61 66 0.539335 0.0811137 0.838175 
-34.7599 6.07702 -79.4558 130 126 123 0.464621 0.100268 0.879815 
-33.6424 10.577 -80.5225 84 79 90 0.296477 -0.332233 0.89539 
-34.9064 12.5001 -80.0855 93 85 96 0.458897 0.168604 0.872345 
-36.2847 10.2786 -79.2353 106 100 108 0.340378 0.54041 0.76948 
-33.9634 8.86892 -79.8537 68 66 74 0.545331 0.192917 0.815719 
-37.4696 7.41783 -78.5148 65 60 72 0.550063 0.0403844 0.834146 
-33.4161 7.632 -80.2573 52 49 60 0.46888 0.106242 0.876849 
-34.5932 10.1966 -80.0052 92 86 97 0.296167 0.087415 0.951128 
-33.5833 10.1029 -80.455 67 63 72 0.409376 0.175033 0.895419 
-35.8457 9.06338 -79.0872 119 129 107 0.622964 0.0409659 0.781177 
-34.9429 7.95306 -76.2462 131 150 118 0.703884 0.070822 0.706775 
-35.0887 7.18419 -77.8589 98 105 97 0.0799695 -0.0449144 0.995785 
-35.0252 7.55843 -79.572 49 48 52 0.378327 0.0794353 0.922257 
-32.6749 6.78259 -80.6053 95 87 99 0.37785 0.123182 0.917636 
-36.0188 9.88594 -78.591 106 104 102 0.443822 0.0876514 0.891818 
-33.9032 11.2935 -80.3394 122 115 127 0.183008 0.687433 0.702812 
-33.8499 11.4727 -80.4563 91 84 97 0.254805 0.634637 0.729596 
-36.1487 7.35174 -78.9856 44 45 45 0.452153 0.102826 0.885994 
-34.0431 11.4377 -80.4173 111 104 116 0.182621 0.68905 0.701327 
-34.1327 7.61756 -79.9666 60 63 67 0.264128 0.0434014 0.963511 
-33.9995 9.2688 -80.1354 51 48 57 0.526114 0.126792 0.840909 
-34.7057 12.426 -80.1377 111 101 114 0.456976 0.121006 0.88121 
-33.0535 7.05498 -80.3014 45 41 49 0.203293 0.022327 0.978863 
-34.8347 12.3714 -80.0704 110 100 113 0.438084 0.114099 0.891663 
-33.2936 9.63085 -80.5566 103 97 110 0.493284 0.125853 0.860716 
-37.7137 10.9076 -78.4456 110 100 114 0.576829 0.0819932 0.812739 
-32.4924 7.08865 -80.5689 60 55 63 0.427024 0.110606 0.89745 
-36.4658 9.28873 -78.5504 103 108 98 0.664997 0.185831 0.723357 
-34.4753 5.57515 -79.3059 97 97 80 0.517605 0.15189 0.84203 
-37.5104 10.7606 -78.6088 83 73 86 0.584031 0.0789231 0.807886 
-37.61 10.4982 -78.537 83 73 87 0.564597 0.0757561 0.821882 
-36.5051 8.84123 -78.7521 94 103 91 0.388334 0.36338 0.846848 
-36.2778 7.03237 -78.9125 91 97 90 0.480958 -0.053746 0.875095 
-34.1979 9.88002 -80.2067 89 88 93 0.12121 0.00545991 0.992612 
-35.9456 8.47309 -79.1062 128 142 119 0.331232 0.0584527 0.941737 
-33.1095 6.60572 -80.3383 105 101 108 0.258964 -0.236567 0.936469 
-37.488 11.7783 -78.7254 73 65 78 0.502647 0.107403 0.857794 
-37.0862 9.86807 -78.7276 120 116 121 0.539458 0.0782854 0.838366 
-36.5726 6.58186 -78.6932 91 89 93 0.519315 0.0601902 0.852461 
-35.531 5.71091 -78.8687 133 138 130 0.537389 -0.00676812 0.843308 
-34.8122 7.75046 -76.5346 79 94 72 0.0988257 -0.304383 0.947409 
-37.9544 9.851 -78.3886 61 53 64 0.628992 -0.155363 0.761729 
-34.8116 10.3619 -79.9149 64 59 68 0.289117 0.174018 0.941344 
-37.3879 7.86484 -78.4233 78 77 83 0.571731 -0.0491661 0.818966 
-36.8079 8.0751 -78.7134 55 59 62 0.486117 0.0887691 0.869374 
-34.4675 9.15511 -77.1232 99 115 91 0.654976 -0.261673 0.708896 
-34.4512 11.3581 -80.0918 105 99 108 0.578343 -0.0728284 0.812536 
-32.7957 7.78907 -80.6263 90 84 97 0.694169 0.0862231 0.714629 
-35.3344 8.88312 -76.4015 100 120 93 0.563643 0.0347928 0.825285 
-35.8522 5.40368 -78.7054 130 130 129 0.532659 0.0692315 0.843494 
-36.8079 11.0352 -78.9659 102 96 104 0.526796 0.228841 0.818607 
-34.3712 10.6643 -80.088 42 38 48 0.294665 0.135896 0.945888 
-34.7436 5.66703 -79.163 94 96 81 0.399425 0.0329559 0.916173 
-34.317 7.56246 -79.7376 45 42 53 0.526238 0.0989385 0.844562 
-34.7153 6.08296 -78.4466 86 85 84 0.236824 -0.546398 0.803345 
-36.617 10.9126 -79.1089 122 117 121 0.486448 0.125582 0.864637 
-36.7485 8.66123 -78.5395 73 74 74 0.324618 -0.235168 0.916144 
-36.0218 11.2153 -79.4442 116 110 117 0.268173 0.0358388 0.962704 
-37.3618 9.70513 -78.5502 102 97 105 0.466386 0.0765709 0.881261 
-35.6965 6.51135 -79.1898 86 84 89 0.504968 0.110776 0.856 
-34.9179 5.96064 -79.298 127 126 118 0.52814 0.142701 0.837081 
-36.5217 6.80267 -78.7845 87 85 93 0.50605 0.113897 0.854951 
-35.6277 11.1138 -79.648 118 120 118 0.226659 -0.260033 0.938621 
-34.5611 9.90148 -79.6379 79 76 83 0.501177 0.129289 0.855632 
-33.9184 10.4752 -80.3653 91 85 96 0.519539 0.191251 0.832768 
-36.0231 11.7315 -79.4191 100 92 101 0.225542 0.00826593 0.974198 
-33.2976 6.16452 -80.2014 117 109 120 0.468741 0.17892 0.865026 
-34.1575 8.27114 -79.8534 65 63 72 0.517005 0.136208 0.845076 
-36.7945 10.0399 -78.8234 117 109 119 0.470918 0.162841 0.867017 
-36.9455 11.9748 -79.0794 82 75 85 0.491453 0.103989 0.864673 
-36.8262 10.3213 -79.0101 89 87 90 0.207497 -0.183708 0.960831 
-35.5097 8.50105 -79.2263 67 75 64 0.222994 -0.403161 0.887544 
-36.2714 8.50417 -79.0828 112 124 105 0.421479 0.0898233 0.902379 
-33.822 11.1724 -80.3519 54 49 60 0.246926 0.0714457 0.966397 
-38.3862 11.382 -78.1994 88 77 91 0.474733 0.100615 0.87436 
-36.7459 11.4223 -79.1439 119 113 122 0.549159 0.176032 0.816968 
-37.6182 9.74523 -78.4418 80 73 82 0.456645 0.0676 0.887077 
-37.6415 11.1969 -78.6567 87 83 91 0.0723542 -0.111403 0.991138 
-32.8827 7.48297 -80.4956 80 75 86 0.393839 0.118291 0.911536 
-33.8049 8.82286 -80.1356 59 59 66 0.25527 -0.301421 0.918685 
-36.5151 9.44724 -79.0851 115 127 108 0.505878 0.123208 0.85376 
-37.845 8.88804 -78.2536 120 114 124 0.507404 0.0895419 0.857044 
-33.3646 8.0674 -80.296 60 57 70 0.28225 0.155305 0.946686 
-36.241 4.90082 -78.6744 101 91 105 0.549986 0.00407397 0.835164 
-36.7099 8.45352 -78.8583 58 61 56 0.396937 0.253141 0.882248 
-33.7004 7.86366 -80.2555 49 45 57 0.238716 0.0302939 0.970617 
-32.5492 5.91016 -80.6162 79 71 84 0.56043 0.0816996 0.824162 
-32.2994 6.05586 -80.6891 89 80 94 0.482629 0.159898 0.861105 
-36.3612 9.10834 -78.9804 116 115 114 0.47265 0.0945299 0.876166 
-34.5202 9.74302 -79.9755 88 86 94 0.507266 0.107776 0.855024 
-34.3009 10.0502 -80.2905 71 68 78 0.282074 -0.54051 0.792643 
-34.4127 8.42807 -79.8319 60 57 64 0.496234 0.0511439 0.866681 
-37.2322 8.97024 -78.3163 111 103 113 0.394536 0.262524 0.880581 
-36.9438 11.3187 -79.0099 93 83 96 0.553928 0.0935203 0.827295 
-32.9197 7.59102 -80.4821 90 85 96 0.45938 0.118045 0.880361 
-37.0377 10.2553 -78.6762 83 77 84 0.488023 0.110199 0.865847 
-34.4486 8.66756 -79.6658 65 64 69 0.46077 0.112002 0.880424 
-33.7302 7.60886 -80.1626 49 46 58 0.496051 0.170286 0.851431 
-34.3423 7.39548 -79.8929 56 53 64 0.480645 0.0826766 0.873009 
-33.5042 8.98073 -80.2673 56 53 64 0.689995 0.0181946 0.723585 
-34.4809 11.1 -80.1499 108 101 112 0.260066 0.0615615 0.963626 
-34.2738 8.55176 -79.6742 55 54 60 0.540911 0.212993 0.813664 
-35.4937 9.09897 -79.1721 81 87 71 0.477667 0.320021 0.818182 
-35.8131 5.98048 -78.9661 94 90 98 0.487435 0.065269 0.870717 
-33.6262 10.5982 -80.4429 97 91 102 0.508619 0.14511 0.848675 
-37.4926 9.87225 -78.4592 119 111 121 0.371727 0.322775 0.870422 
-34.9577 5.26446 -79.087 117 123 103 0.224619 -0.221896 0.948846 
-37.3011 10.3327 -78.6128 57 50 59 0.566957 0.144343 0.811002 
-33.4591 10.3624 -80.4492 118 116 123 0.367741 0.263523 0.891809 
-35.1362 6.58607 -79.415 106 105 108 0.440949 0.102188 0.891696 
-37.3536 11.0332 -78.5915 86 82 91 0.277879 -0.346235 0.896049 
-33.4029 6.90482 -80.2218 93 88 100 0.476715 0.198756 0.856294 
-37.4783 10.6271 -78.592 95 88 99 0.685223 0.0324951 0.727608 
-34.5969 7.41207 -79.7729 38 35 44 0.481997 0.122298 0.867595 
-37.2067 9.41102 -78.426 87 85 89 0.456325 0.187551 0.869823 
-35.6972 10.9649 -79.6694 111 110 112 0.197739 -0.376714 0.904979 
-34.1863 7.17853 -79.765 55 51 62 0.47286 0.169405 0.8647 
-36.4497 10.8623 -79.1414 86 78 88 0.258559 0.645603 0.718571 
-35.2732 7.5478 -76.3941 129 139 122 -0.0481699 -0.488581 0.871188 
-36.4354 9.98969 -79.0852 121 125 119 0.584067 0.1005 0.805459 
-37.3448 8.74121 -78.6022 117 121 112 0.454519 0.0999098 0.885116 
-34.7338 8.45204 -79.7256 60 61 63 0.264963 0.276421 0.923789 
-33.827 11.5542 -80.3604 94 88 99 0.489392 0.219696 0.843937 
-34.8175 8.72163 -79.6267 63 65 62 0.593678 0.16768 0.787039 
-36.0666 7.93899 -79.0542 103 107 100 0.513701 0.259178 0.817886 
-35.7485 9.96444 -79.4765 67 65 65 0.521017 0.184683 0.833327 
-34.3943 7.04597 -79.6658 73 69 78 0.381857 0.08833 0.919991 
-33.8877 7.01041 -80.0155 99 96 104 0.447484 0.180461 0.875895 
-37.313 8.10152 -78.4626 62 59 68 0.53871 0.102543 0.836228 
-38.0042 10.8252 -78.3105 124 118 127 0.432317 -0.095916 0.896606 
-37.1038 8.20395 -78.5476 80 79 85 0.456138 0.1151 0.882434 
-33.5055 8.92396 -80.2446 56 56 64 0.326697 -0.648518 0.687527 
-35.8006 9.22599 -79.0537 108 117 96 0.272102 0.456578 0.847052 
-33.4521 7.61196 -80.0396 54 51 62 0.347721 0.0616713 0.935567 
-38.1136 11.651 -78.4332 105 96 109 0.487867 0.113025 0.86557 
-35.1826 9.68369 -79.6578 50 48 50 0.509887 0.145472 0.847852 
-34.2451 8.381 -75.8517 117 139 106 0.520026 0.295577 0.801378 
-34.6338 10.7668 -79.9353 97 100 98 0.214263 -0.233369 0.948488 
-33.9445 10.5361 -80.3401 94 88 99 0.319832 0.0369527 0.946753 
-37.3629 9.81663 -78.5723 91 86 94 0.541244 0.0692453 0.83801 
-34.4788 7.10141 -79.6533 64 61 70 0.491065 -0.00936637 0.871072 
-35.6316 5.28995 -78.9781 107 103 111 0.217002 -0.23065 0.948531 
-33.2829 7.5885 -80.2833 40 36 48 0.530714 0.102116 0.841377 
-32.9642 7.37865 -80.5088 84 78 90 0.505075 0.15167 0.849645 
-32.817 7.57549 -80.5566 65 59 72 0.468561 0.0764713 0.880115 
-34.4318 10.2607 -80.108 80 75 85 0.295955 0.0495376 0.953916 
-35.5148 5.60536 -78.8651 92 91 94 0.506181 0.0803685 0.858674 
-36.4492 9.05346 -78.5428 95 94 93 0.429568 0.104943 0.896916 
-37.276 6.86898 -78.364 97 88 101 0.520779 0.108195 0.846807 
-37.193 7.69075 -78.5007 84 83 89 0.538355 -0.043124 0.841614 
-37.1737 10.6642 -78.6966 106 96 109 0.575891 0.131759 0.806839 
-33.0168 7.90037 -80.5008 87 86 95 0.180592 0.0126529 0.983477 
-36.245 5.44237 -78.7589 91 84 97 0.541542 0.219378 0.811545 
-34.7048 10.2582 -79.7763 94 89 98 0.306498 0.055144 0.950273 
-33.9689 8.32337 -76.0573 90 108 81 0.705877 0.0589429 0.705877 
-34.1999 11.4951 -80.2574 104 97 109 0.250108 0.596169 0.762908 
-35.1521 9.32634 -79.4439 102 106 99 0.323165 0.567548 0.757267 
-36.8065 9.48418 -78.3685 99 98 99 0.453389 0.0996614 0.885723 
-33.9611 7.94795 -79.7961 69 66 78 0.530692 0.120678 0.83893 
-36.4985 11.1505 -79.1336 85 81 86 0.285829 0.0571658 0.956574 
-33.9172 9.51502 -77.331 80 88 79 0.82419 0.189034 0.533833 
-35.1178 11.517 -79.948 107 98 110 0.230155 0.136532 0.963529 
-34.8776 7.39855 -79.547 50 47 52 0.343038 0.0644018 0.937111 
-33.8294 10.4285 -80.3699 101 97 107 0.50821 0.120175 0.852808 
-36.2915 9.37671 -79.2173 133 134 133 0.37839 0.48144 0.790593 
-36.9399 9.59409 -78.8721 81 81 83 0.443446 0.0965229 0.891089 
-33.1368 5.72044 -80.1781 130 120 132 0.376831 0.336841 0.862866 
-33.6707 8.93346 -80.1015 67 65 76 0.283536 -0.651973 0.703234 
-35.8282 5.94064 -79.1062 106 103 109 0.502616 -0.00402093 0.8645 
-34.0681 12.2144 -80.4091 88 81 93 0.502899 0.095451 0.859059 
-35.6297 9.12293 -76.5968 103 111 101 0.212802 0.750243 0.625979 
-33.0249 8.54376 -80.5482 64 60 72 0.554263 0.0998542 0.82633 
-35.8965 10.6514 -79.4474 97 94 98 0.207427 0.0272618 0.977871 
-36.3962 5.01578 -78.6696 91 84 94 0.316226 -0.0037203 0.948677 
-34.8527 9.16042 -79.6503 80 82 81 0.452587 0.339046 0.82475 
-34.4569 5.5764 -79.1901 93 93 79 0.496529 -0.183403 0.848423 
-33.4473 6.2509 -80.1303 142 135 145 0.421674 0.286739 0.860216 
-37.1829 11.4746 -78.8699 111 103 115 0.559697 0.166559 0.811786 
-34.5013 8.2195 -79.8318 48 45 55 0.3998 0.340686 0.850937 
-33.6018 6.18314 -80.0606 144 136 145 0.445043 0.233836 0.86444 
-36.9568 5.2789 -78.4158 83 73 86 0.551929 0.0936694 0.828614 
-34.5453 9.65863 -77.0003 123 139 116 0.19603 0.71466 0.671441 
-34.8423 8.78445 -76.2739 112 132 103 0.41851 0.47062 0.776767 
-38.2218 10.5356 -78.2336 94 84 97 0.509755 0.217597 0.832347 
-35.174 11.5229 -79.8282 81 73 85 0.245906 0.143335 0.958637 
-35.5312 12.0088 -79.706 82 73 83 0.255872 0.0206152 0.966491 
-34.4358 9.05872 -76.5347 103 118 96 0.460398 0.376981 0.803691 
-34.4529 12.0758 -80.1472 96 90 101 0.366895 0.414135 0.832994 
-36.5348 4.82394 -78.4439 101 92 106 0.408846 0.450862 0.793453 
-37.2404 11.3837 -78.8611 98 91 102 0.583206 0.118992 0.803562 
-34.2372 11.5114 -80.2286 109 101 113 0.259283 0.0881305 0.961772 
-36.9672 9.61052 -78.6817 109 108 108 0.505777 0.00670792 0.862638 
-34.9071 5.85945 -79.2443 114 116 103 0.302867 0.531206 0.79126 
-34.3175 11.644 -80.2281 103 95 108 0.304081 0.0603031 0.950736 
-34.1318 11.6178 -80.3285 100 92 105 0.306513 0.104825 0.946077 
-36.2939 6.27079 -78.8113 91 89 94 0.155358 0.01701 0.987712 
-35.4675 6.05148 -79.1517 92 91 93 0.498192 0.11055 0.859991 
-34.7982 10.0818 -79.7228 83 80 87 0.313098 0.0264059 0.949354 
-33.2542 9.20214 -80.5635 74 69 82 0.326686 0.042277 0.944187 
-35.0392 8.98449 -79.4728 114 115 112 0.466903 0.255649 0.846549 
-35.0745 8.99377 -79.7008 64 71 67 0.36486 -0.393047 0.844033 
-33.601 10.422 -80.522 99 95 105 0.517129 -0.0259247 0.855515 
-34.2718 8.93633 -76.4375 96 111 89 0.272618 0.639298 0.719011 
-36.9246 6.29913 -78.5914 83 79 88 0.502705 -0.0540096 0.862769 
-36.9203 11.6551 -79.0796 94 84 96 0.500369 0.0370136 0.865021 
-36.6664 11.9773 -79.2653 130 120 132 0.487347 0.0395884 0.87231 
-36.0351 7.87779 -79.1168 110 119 105 0.348362 0.107084 0.931223 
-34.6459 8.07017 -79.5898 81 81 87 0.749658 0.236322 0.618194 
-34.9252 11.8849 -79.9898 103 97 107 0.438172 0.206461 0.874859 
-33.1714 5.66829 -80.1354 146 138 147 0.408231 0.0718813 0.910044 
-35.4655 11.3701 -79.7858 91 83 94 0.251712 0.0663719 0.965524 
-35.0467 7.72864 -76.2446 132 147 122 0.107509 -0.181653 0.977468 
-34.4499 11.697 -80.0613 108 100 112 0.354823 0.0510631 0.933538 
-37.4778 10.2117 -78.5982 88 81 91 0.435771 0.0932801 0.895211 
-33.3048 8.68624 -80.4673 57 53 66 0.294377 0.0928922 0.951164 
-36.2895 10.7276 -79.2269 119 115 118 0.472439 0.156505 0.867357 
-34.8584 6.91595 -79.607 66 62 69 0.401497 0.0918099 0.911247 
-33.5037 8.99816 -80.3066 71 67 80 0.307622 0.0713891 0.948827 
-36.2647 6.55932 -78.8314 114 112 119 0.16421 0.00792739 0.986394 
-34.1432 8.05275 -80.0142 41 39 50 0.564387 0.0040799 0.8255 
-36.2188 8.57029 -78.8598 132 135 126 0.404522 0.0604767 0.912526 
-38.1104 9.34473 -78.1701 92 84 95 0.382835 0.117477 0.916317 
-35.9811 7.68931 -79.1402 82 88 80 0.611808 -0.113516 0.782819 
-34.7282 6.29304 -79.625 121 125 116 0.311891 0.548608 0.775728 
-34.5485 12.0504 -80.1387 99 90 103 0.40922 0.359048 0.838823 
-35.5099 7.94911 -76.24 132 140 127 0.302902 0.581764 0.754851 
-35.6264 8.49005 -79.2386 86 95 81 0.223311 -0.406693 0.885851 
-34.4917 11.9094 -80.131 106 98 110 0.40352 0.362697 0.840013 
-33.2864 7.68492 -80.3342 47 43 55 0.481089 0.112778 0.869387 
-34.3692 11.9675 -80.1579 130 121 134 0.447597 0.313474 0.837491 
-34.459 11.7592 -80.1271 99 91 103 0.440699 0.309891 0.842468 
-32.9528 5.95499 -80.3546 163 152 165 0.421649 0.238584 0.874809 
-35.1247 10.6813 -79.818 89 85 93 0.293913 0.162677 0.941887 
-36.2608 9.76869 -79.0816 71 73 64 0.414398 0.077956 0.906751 
-34.1999 9.59363 -80.1698 85 85 89 0.256543 0.0458555 0.965444 
-35.78 8.24681 -76.3392 93 101 90 0.473987 0.121719 0.872079 
-36.5772 7.18696 -78.8659 66 67 69 0.576989 0.0319777 0.816126 
-37.8067 11.493 -78.5213 64 56 70 0.501402 0.119932 0.856862 
-35.1608 9.50627 -79.2522 104 107 97 0.606978 -0.256981 0.752023 
-34.4609 6.44123 -79.7202 60 53 59 0.465163 0.115224 0.877694 
-38.4921 10.7015 -78.0359 88 86 92 0.321445 0.0214296 0.946686 
-36.5784 6.32318 -78.5673 74 73 76 0.527904 0.0602119 0.847167 
-38.0202 11.1796 -78.332 105 99 109 0.382624 0.0939539 0.919115 
-34.9382 6.6567 -77.8487 108 111 104 0.254641 -0.627904 0.735455 
-35.8876 5.86544 -79.0189 57 53 62 0.496519 0.0148014 0.8679 
-36.0807 9.99277 -79.2956 66 67 64 0.601823 0.168268 0.780702 
-35.7585 10.9845 -79.5234 78 73 79 0.517186 0.126747 0.846436 
-34.916 8.36559 -76.3076 104 125 94 0.330699 0.559768 0.759801 
-36.1766 5.95167 -78.825 100 96 105 0.152801 0.0169779 0.988111 
-37.2458 9.30816 -78.3871 103 99 105 0.184632 -0.0057339 0.982791 
-33.2151 6.54412 -80.2954 128 121 131 0.447771 0.23067 0.863882 
-36.2708 7.42878 -78.949 112 112 114 0.494487 0.0148212 0.869058 
-34.9921 7.91964 -79.5708 91 92 95 0.506223 0.148199 0.849574 
-34.0975 12.0183 -80.3244 54 49 60 0.43358 0.0670203 0.898619 
-36.98 7.85931 -78.4084 83 79 88 0.19474 0.0174917 0.980699 
-33.323 7.07088 -80.2851 99 95 106 0.489288 0.104134 0.865883 
-34.4793 9.01573 -77.1589 88 105 81 0.242871 -0.338857 0.90895 
-35.9007 9.35697 -79.0763 130 138 119 0.27533 0.453756 0.847525 
-33.2039 7.01825 -80.3271 85 81 91 0.471762 0.121884 0.873261 
-35.3284 8.40835 -79.4939 95 96 93 0.386665 0.0827599 0.918499 
-34.0372 8.6666 -80.0828 43 41 51 0.371074 0.073679 0.925676 
-34.3524 9.26777 -76.5719 94 108 87 0.447994 0.396611 0.80125 
-36.5679 7.76772 -78.8719 73 77 76 0.648643 0.0238163 0.76072 
-36.585 5.27925 -78.6408 96 87 101 0.535039 0.149692 0.83146 
-33.5935 5.82063 -80.0084 158 156 159 0.259476 0.045936 0.964656 
-37.7683 11.2715 -78.519 97 88 100 0.0815084 -0.142935 0.98637 
-33.6914 8.46887 -80.1307 55 52 63 0.389946 0.368021 0.844099 
-34.5845 5.22831 -79.1668 140 141 123 0.499851 0.301172 0.812061 
-33.6677 11.2255 -80.4225 102 97 108 0.312794 0.082452 0.946235 
-36.8201 8.18388 -78.7478 75 75 78 0.227183 -0.28927 0.929898 
-35.8214 5.35553 -79.0159 71 67 76 0.494144 0.307853 0.813049 
-35.4301 12.1855 -79.719 74 66 76 0.413698 0.0495367 0.909065 
-32.8335 8.11033 -80.6451 82 77 90 0.358234 0.0845271 0.929798 
-36.9477 6.00219 -78.4888 115 108 119 0.508833 0.142239 0.849033 
-35.9114 8.51362 -78.926 146 150 137 0.46143 0.093969 0.882186 
-35.1091 10.2002 -79.6941 87 83 91 0.303431 0.0550528 0.951262 
-34.8936 9.4617 -79.1413 90 93 88 0.549962 0.143791 0.822719 
-35.1886 8.75185 -76.2955 103 121 95 0.451419 0.412587 0.791197 
-35.5287 7.08819 -79.2725 101 102 100 0.575979 0.151101 0.803378 
-36.0458 8.56721 -79.0063 135 146 126 0.360081 0.0402979 0.93205 
-37.6291 10.1797 -78.4746 88 81 91 0.542419 0.0722282 0.836997 
-36.4869 5.69909 -78.738 88 81 94 0.512508 0.126312 0.849341 
-38.458 10.5961 -78.0473 47 44 50 0.342218 0.0726718 0.936806 
-36.781 5.48056 -78.5249 83 76 88 0.248354 -0.0481882 0.96747 
-36.8357 5.38516 -78.4344 83 79 87 0.23926 0.032792 0.970402 
-35.8301 7.67297 -78.8552 81 83 78 0.252453 0.0304896 0.967129 
-34.9319 5.65285 -79.2576 101 107 88 0.311104 0.42564 0.849732 
-35.8419 8.03807 -79.2037 97 104 90 0.392326 0.0800942 0.916332 
-34.5438 6.26321 -79.6627 93 91 91 0.317041 0.484237 0.815475 
-35.7171 5.97383 -79.0265 81 79 85 0.522563 0.13613 0.841663 
-34.845 7.26815 -79.4952 58 57 61 0.476305 0.00933932 0.87923 
-33.7225 7.45443 -80.1395 38 35 47 0.391435 0.0772035 0.916961 
-34.2627 9.3759 -80.0522 67 64 72 0.32251 0.304676 0.896192 
-35.6873 7.97428 -75.9083 92 87 95 0.332991 0.538898 0.773761 
-33.0573 8.6879 -80.4089 40 37 49 0.686232 0.111161 0.718839 
-33.4563 8.56136 -80.257 57 54 65 0.252472 0.0280524 0.967198 
-34.4964 7.03054 -79.6064 57 54 63 0.397315 0.167819 0.902207 
-34.8495 8.48203 -79.7176 46 44 51 0.547652 -0.146931 0.823704 
-35.3415 10.1973 -78.6063 98 103 94 0.329672 0.0612435 0.942107 
-34.61 9.72065 -79.8282 100 94 103 0.524008 0.10193 0.845592 
-33.7118 5.98426 -80.0452 119 110 118 0.463605 0.185146 0.866482 
-35.6548 8.25292 -79.3701 105 109 102 0.265696 -0.330285 0.905714 
-35.9076 11.0954 -79.3933 127 121 128 0.520711 0.117486 0.845611 
-34.1774 7.63485 -80.0033 52 49 61 0.614658 -0.0124313 0.788696 
-37.3389 8.42102 -78.4235 66 59 70 0.462776 0.118186 0.878562 
-36.6967 6.71145 -78.7411 98 95 105 0.558679 0.0234507 0.829052 
-38.036 10.3536 -78.2848 72 64 76 0.556017 -0.0318912 0.830559 
-35.248 11.6169 -79.7532 83 83 83 0.428492 0.104681 0.897461 
-34.7492 6.65913 -78.1943 90 92 90 0.180461 -0.447484 0.875895 
-37.5516 8.53478 -78.3268 85 76 88 0.46293 0.115376 0.878854 
-33.9348 8.88651 -79.8942 55 53 62 0.270992 0.276727 0.921946 
-35.8503 8.0095 -79.2143 91 93 89 0.49459 0.119682 0.860847 
-34.6836 7.03745 -79.7999 72 72 76 0.418403 0.292729 0.859796 
-37.4875 8.51917 -78.3604 81 72 84 0.379646 0.126549 0.916436 
-35.9032 7.50601 -79.1137 89 89 87 0.182816 0.0126476 0.983066 
-37.7582 8.7139 -78.2867 70 65 75 0.507404 0.0895419 0.857044 
-34.6501 7.56284 -79.7661 40 38 46 0.477392 0.121857 0.8702 
-33.7817 11.3824 -80.4379 143 136 148 0.223062 0.644229 0.731582 
-36.9011 11.3601 -78.9611 93 88 94 0.229091 -0.0999898 0.968256 
-34.0419 9.2147 -80.0543 56 54 63 0.482654 -0.0120329 0.875729 
-34.6553 12.5801 -80.2107 83 74 87 0.438791 0.186376 0.879049 
-38.0012 9.45367 -78.2379 111 101 115 0.436164 0.107989 0.893364 
-34.3946 11.5479 -80.1984 80 75 85 0.515913 0.126435 0.847259 
-33.8525 11.8809 -80.4923 92 85 96 0.522716 0.126675 0.843043 
-34.4782 8.78999 -79.841 55 53 61 0.490141 0.20963 0.84606 
-35.368 7.84169 -79.3806 99 100 98 0.476527 0.115912 0.871485 
-37.0203 10.8085 -78.8959 128 122 129 0.498528 0.167162 0.850604 
-33.8336 6.90314 -80.0302 70 66 78 0.544297 0.189519 0.817204 
-38.05 9.17587 -78.1752 79 69 82 0.439661 0.10535 0.891964 
-37.2795 11.6128 -78.7917 105 96 107 0.361071 -0.174164 0.91613 
-37.2766 8.77373 -78.6217 74 72 80 0.409205 0.165118 0.897378 
-34.2055 8.85294 -76.8484 109 121 102 0.662362 0.159149 0.732085 
-33.9263 8.46728 -80.192 50 47 58 0.209692 -0.0856138 0.974012 
-36.2737 8.04014 -78.9663 90 96 87 0.651541 0.237067 0.72062 
-37.9669 9.39788 -78.2645 126 116 129 0.437124 0.111038 0.892521 
-32.9245 8.62339 -80.5693 46 41 53 0.274483 0.114258 0.95478 
-35.4129 9.55487 -79.4653 87 90 82 0.440494 0.180003 0.879525 
-36.3944 8.1663 -78.6067 105 113 102 0.230735 0.032617 0.97247 
-34.1939 8.91718 -79.4283 68 67 72 0.34552 0.382706 0.856827 
-36.3169 5.97342 -78.7738 79 79 81 0.563099 -0.0262872 0.825971 
-36.8635 5.48878 -78.3946 100 96 104 0.221279 0.0275103 0.974823 
-38.6438 11.3801 -78.0876 69 61 74 0.450867 0.0172899 0.892424 
-35.4355 5.09063 -79.0277 117 118 116 0.571302 -0.0123303 0.820647 
-33.7016 7.72716 -80.2266 45 41 54 0.312887 -0.230022 0.921516 
-34.8219 6.98439 -79.5902 82 79 84 0.393217 0.0829973 0.915692 
-33.6741 10.4948 -80.4437 110 106 116 0.510149 0.135942 0.849275 
-36.6617 6.87705 -78.7096 82 79 89 0.559709 0.0404777 0.8277 
-37.4462 9.40555 -78.4863 86 82 89 0.455863 0.0939778 0.885075 
-35.5405 7.92236 -76.3441 116 130 111 0.257524 -0.192121 0.94698 
-33.9604 6.73133 -79.7549 55 51 61 0.523641 0.139344 0.840466 
-35.006 12.1423 -79.9374 103 95 105 0.417579 0.0581096 0.906781 
-34.7801 9.07246 -79.7304 64 64 66 0.356535 0.365795 0.859696 
-34.9753 6.98758 -79.5512 33 29 35 0.325212 0.0163234 0.9455 
-37.585 10.4537 -78.5177 75 68 79 0.688097 0.123887 0.714964 
-33.8621 7.35226 -80.0711 60 57 69 0.421345 0.241411 0.874179 
-37.8335 10.8443 -78.3555 89 85 94 0.350299 -0.305196 0.88552 
-34.9154 8.90059 -76.3144 112 132 104 0.41851 0.47062 0.776767 
-34.5428 7.81977 -76.4147 76 91 71 0.230014 -0.538758 0.810453 
-35.0814 11.7648 -79.8814 106 97 109 0.283128 0.0840333 0.955394 
-37.0202 8.18135 -78.4217 94 88 98 0.457885 0.10003 0.883366 
-34.4889 8.28699 -76.3319 98 117 90 0.308724 -0.239799 0.920427 
-37.165 9.05674 -78.4894 63 61 65 0.38195 -0.160447 0.910149 
-34.5575 9.71263 -80.1824 65 64 70 0.339787 0.0346199 0.939865 
-34.1039 12.4023 -80.3828 115 106 120 0.484151 0.0480037 0.873667 
-35.332 10.1264 -79.6695 97 93 98 0.285126 0.120681 0.950862 
-36.5343 5.16346 -78.5472 105 97 110 0.459523 0.3514 0.815694 
-33.8368 6.56687 -79.7148 76 71 79 0.206655 0.157266 0.965692 
-34.0699 8.67141 -76.1004 109 126 99 0.612658 0.142304 0.777431 
-35.247 6.29381 -79.3404 81 79 81 0.465932 0.0943124 0.87978 
-34.0687 11.962 -80.4235 100 93 105 0.436095 0.0584177 0.898003 
-36.9045 5.52812 -78.5332 93 85 99 0.546387 0.108698 0.83045 
-36.4126 6.62335 -78.7648 122 121 125 0.517177 0.0630703 0.853552 
-35.7724 9.45197 -78.7439 136 139 124 0.485027 0.0919148 0.869655 
-37.2101 11.6131 -78.8919 101 94 105 0.512694 0.123453 0.849649 
-36.5008 11.1033 -79.216 90 85 91 0.56572 0.160562 0.808814 
-37.8464 8.68319 -78.1821 111 101 114 0.451264 0.142732 0.880902 
-35.6012 8.10336 -79.3806 78 80 76 0.400356 0.0356753 0.915665 
-36.2243 8.56789 -79.0786 130 142 122 0.554538 0.137525 0.820716 
-37.1682 9.90573 -78.6358 129 120 131 0.454093 0.200992 0.867987 
-34.3849 8.58284 -79.9456 47 44 52 0.292216 0.0493352 0.955079 
-36.9136 10.6368 -78.8616 75 71 77 0.221879 -0.182021 0.957934 
-37.0362 10.2439 -78.7261 77 69 80 0.452284 0.19426 0.870461 
-36.2753 8.36126 -78.6651 90 99 86 0.0904532 -0.125695 0.987937 
-37.2354 9.9945 -78.5624 115 110 117 0.530033 0.191778 0.826006 
-36.9751 6.52575 -78.5301 73 68 75 0.324163 0.0637911 0.943848 
-34.3276 7.65001 -79.8417 49 46 57 0.491965 0.00399972 0.870606 
-36.7431 4.8964 -78.5125 84 76 90 0.475005 0.12485 0.871081 
-37.0852 10.1376 -78.7162 80 71 82 0.451452 0.204122 0.868634 
-35.0196 7.83606 -79.4993 92 89 95 0.46077 0.112002 0.880424 
-36.1301 8.95389 -79.0498 121 132 111 0.525576 -0.0543699 0.849007 
-34.6812 8.89278 -79.4577 51 50 55 0.33114 0.408873 0.850393 
-35.4256 7.93224 -76.4689 124 144 114 0.515768 0.174913 0.838683 
-36.1653 8.72838 -79.1552 128 141 118 0.490752 0.0801515 0.867605 
-35.2835 10.805 -79.8086 102 96 105 0.679552 0.117472 0.724161 
-35.3146 11.4835 -79.7411 116 110 118 0.428024 0.0928078 0.898989 
-35.0899 5.10413 -78.9156 132 134 126 0.614777 0.0915625 0.783368 
-35.9461 6.81002 -79.1414 73 73 76 0.462025 0.0735355 0.883813 
-36.6408 7.73783 -78.8018 123 120 128 -0.0719913 0.198891 0.977374 
-34.6756 8.85793 -76.5556 89 115 79 0.21927 0.0201492 0.975456 
-37.4962 8.6491 -78.5139 100 100 100 0.454519 0.0999098 0.885116 
-34.0329 9.21036 -76.7503 101 113 94 0.476216 0.330662 0.814789 
-34.8971 8.52574 -79.6831 44 42 47 0.436294 0.105216 0.893631 
-33.7808 6.94662 -79.8298 95 91 101 0.244468 0.0204727 0.969441 
-36.4744 6.07934 -78.8145 90 86 96 0.403892 0.0889931 0.910468 
-35.7145 9.24506 -79.1117 84 86 75 0.392433 0.44369 0.80569 
-37.5995 10.4547 -78.5305 75 69 80 0.720842 0.00694453 0.693064 
-37.5331 10.2654 -78.5674 80 74 85 0.535844 0.0721056 0.841233 
-34.1125 9.61202 -80.1017 101 98 107 0.659292 -0.133054 0.740021 
-36.4293 7.22376 -78.9102 62 63 65 0.578888 0.0291526 0.814886 
-33.5594 8.57696 -80.3228 55 52 63 0.32408 -0.254323 0.911203 
-37.3497 9.41792 -78.4932 123 115 126 0.473912 0.0885948 0.876104 
-35.0899 11.4482 -79.8442 95 89 99 0.27512 0.075498 0.958441 
-37.4774 10.2274 -78.5106 89 79 92 0.444159 0.0788694 0.89247 
-37.372 10.2594 -78.6315 85 75 88 0.444159 0.0788694 0.89247 
-37.264 10.1613 -78.6593 87 78 90 0.460914 0.109201 0.8807 
-35.9937 5.49977 -78.8256 105 99 109 0.449751 0.357576 0.818452 
-34.3011 8.27299 -79.941 52 50 60 0.484105 -0.0395466 0.874116 
-33.2019 6.57588 -80.2494 97 94 101 0.186428 -0.00343119 0.982463 
-37.0224 10.4281 -78.7185 105 95 108 0.456576 0.184699 0.870302 
-35.9461 6.31973 -79.025 82 80 86 0.510685 0.0717491 0.856769 
-37.5293 9.20499 -78.4588 90 81 93 0.45161 0.114672 0.884816 
-35.537 11.3098 -79.7339 62 55 64 0.489078 0.113305 0.86485 
-35.6277 7.97422 -76.4241 124 134 117 0.293027 0.622883 0.725363 
-35.0493 11.0195 -79.8716 78 81 80 0.409961 0.143274 0.90078 
-35.7457 5.08634 -79.0327 81 76 87 0.575657 0.163829 0.801111 
-35.9148 6.3804 -79.0134 105 101 109 0.526366 -0.0176815 0.850074 
-37.6156 8.95224 -78.3652 116 106 119 0.448225 0.114531 0.886553 
-37.2539 9.10969 -78.5047 80 73 83 0.471947 0.115492 0.874029 
-35.9111 10.3921 -79.4686 145 142 145 0.503348 0.129101 0.854385 
-34.0367 9.60041 -80.1403 98 95 104 0.581056 0.122095 0.804653 
-37.1033 9.16606 -78.624 121 114 122 0.45161 0.114672 0.884816 
-34.7127 8.92644 -79.6867 71 70 75 0.448466 0.278943 0.849158 
-34.0098 11.2819 -80.3345 74 69 80 0.19128 0.220708 0.9564 
-36.9485 9.61954 -78.785 97 90 100 0.449025 0.0645388 0.891185 
-36.2432 10.0592 -79.2169 88 91 84 0.506258 0.0955472 0.857073 
-35.4752 8.43363 -79.3238 55 61 52 0.244847 -0.416089 0.87574 
-35.1824 11.7925 -79.8568 116 111 121 0.436427 0.199721 0.877293 
-33.3738 6.75785 -80.1594 108 105 111 0.184454 0.0220417 0.982594 
-35.8939 8.18961 -79.1949 107 114 101 0.392326 0.0800942 0.916332 
-34.7566 10.3493 -79.8932 95 91 98 0.281249 0.0412499 0.958748 
-36.3826 10.6663 -79.1583 122 121 122 0.504056 0.0894523 0.859026 
-35.5911 6.54802 -79.1634 105 104 108 0.513034 0.155241 0.844214 
-36.821 5.46737 -78.5319 75 67 81 0.548585 0.105664 0.829391 
-34.6737 8.64807 -78.2788 99 109 93 0.181154 -0.332817 0.925428 
-37.7677 8.64465 -78.2389 102 93 106 0.476088 0.0884766 0.874935 
-34.9068 5.69864 -79.0689 95 103 85 0.219392 -0.146694 0.964546 
-37.5564 8.62249 -78.3766 104 95 107 0.473912 0.0885948 0.876104 
-37.3074 9.07461 -78.5315 83 79 89 0.486117 0.0887691 0.869374 
-34.5184 7.84331 -79.7583 48 45 55 0.496145 0.0890517 0.863661 
-34.7223 5.11077 -79.1019 150 150 136 0.511672 0.104628 0.852787 
-36.8286 8.64308 -78.4151 106 102 106 0.175155 0.610756 0.772203 
-35.4824 6.14199 -79.0885 101 99 99 0.255488 -0.386968 0.885992 
-35.6341 6.16815 -79.0935 110 107 109 0.53413 0.090215 0.840575 
-34.1709 9.86638 -80.0418 81 80 87 0.56666 0.0727951 0.82073 
-35.8543 6.31641 -79.0752 108 105 108 0.503147 0.0230552 0.863893 
-33.6635 6.44299 -79.9956 128 122 131 0.468049 0.218222 0.856335 
-35.4548 9.07904 -76.7113 99 117 91 0.619249 0.0495966 0.783627 
-36.5836 6.31085 -78.5839 72 68 77 0.534263 0.10859 0.838315 
-37.2407 7.9594 -78.4753 72 69 76 0.480458 0.131296 0.867134 
-37.6843 7.81639 -78.3196 91 87 95 0.487308 0.0828564 0.86929 
-33.5634 9.02668 -80.3311 44 41 52 0.573173 0.00683978 0.819406 
-38.0303 10.6559 -78.321 84 75 88 0.372064 -0.207024 0.904826 
-37.137 9.31108 -78.6112 109 101 111 0.458081 0.0938575 0.883942 
-34.4412 8.74068 -79.8642 62 61 68 0.416028 0.107138 0.903018 
-37.2275 8.24946 -78.088 86 80 89 0.30204 -0.0497027 0.951999 
-36.3791 8.17594 -79.0138 107 113 102 0.448784 0.1027 0.88772 
-36.4079 11.5058 -79.2603 93 87 95 0.567577 0.112348 0.815619 
-35.3586 8.63858 -76.7368 112 135 101 0.579334 0.16101 0.799029 
-33.9183 6.75029 -79.977 87 82 93 0.463528 0.127721 0.876829 
-36.6789 4.75337 -78.4917 84 75 87 0.507269 0.0744744 0.858564 
-34.5221 5.32648 -79.1858 131 133 117 0.672779 -0.0708949 0.736439 
-35.0361 9.82156 -79.8021 81 76 84 0.292638 0.129616 0.947398 
-33.9669 9.83055 -80.3452 80 76 85 0.446678 0.0994173 0.889154 
-35.1669 9.81128 -79.72 93 89 94 0.264957 0.16005 0.950885 
-35.2361 5.61469 -78.8122 112 117 107 0.385309 -0.151019 0.910346 
-33.4811 8.37668 -80.3826 34 31 43 0.218586 -0.297559 0.929343 
-34.9054 10.2001 -77.0869 87 94 85 0.239437 -0.0107211 0.970853 
-34.0123 8.40401 -76.1082 75 94 67 0.628113 0.171857 0.758907 
-36.0585 5.63634 -78.8472 114 109 116 0.451618 0.353371 0.81925 
-35.1203 9.37868 -79.6448 96 96 94 0.472221 0.159356 0.866956 
-34.6074 5.71118 -79.277 119 120 105 0.49885 -0.203458 0.842469 
-34.705 7.27329 -77.8293 72 77 70 0.193522 -0.190889 0.962346 
-33.5915 10.2285 -80.4536 100 96 107 0.516485 0.204473 0.831525 
-33.9642 11.756 -80.4632 90 83 95 0.487607 0.122261 0.86446 
-37.4006 7.90962 -78.413 67 64 72 0.563341 0.137509 0.814701 
-34.2881 6.76902 -79.6224 48 44 51 0.299484 0.0313268 0.953587 
-35.0615 5.23431 -78.9969 139 142 127 0.5028 0.104571 0.858054 
-37.8704 8.5881 -78.2016 81 74 83 0.558872 -0.0490239 0.827803 
-33.3394 8.95071 -80.4661 41 37 50 0.237144 0.629766 0.739701 
-38.0612 10.9195 -78.3567 112 103 116 0.575121 0.193741 0.794796 
-33.2833 9.17922 -80.6155 76 71 84 0.415635 0.425264 0.803989 
-36.8335 6.89667 -78.6254 77 74 81 0.566653 0.156988 0.808863 
-37.4911 9.17161 -78.4673 85 82 88 0.427155 0.107839 0.897725 
-37.4992 11.1829 -78.6214 86 78 90 0.611504 0.161558 0.774572 
-35.1311 12.1716 -79.8811 88 79 89 0.418842 -0.0251041 0.907712 
-37.3744 7.99529 -78.3957 106 97 107 0.458658 0.133715 0.878495 
-33.7678 8.65528 -80.1776 63 60 71 0.352496 0.0673307 0.933388 
-36.674 8.1377 -78.861 106 105 105 0.501714 0.101486 0.85906 
-35.1315 7.55294 -76.3058 132 143 124 -0.0809826 -0.418639 0.904535 
-36.7885 11.5136 -79.1074 85 78 87 0.543587 0.169216 0.822119 
-36.9302 9.68105 -78.3394 74 73 76 0.394328 0.423064 0.815796 
-34.0464 9.00166 -80.0201 50 47 56 0.203503 0.304553 0.930502 
-35.1902 8.45257 -76.0347 110 129 101 -0.22867 -0.1279 0.965066 
-36.1924 7.48459 -78.9622 85 86 86 0.6107 0.00411708 0.791851 
-34.6035 7.94046 -79.7386 41 41 50 0.34449 -0.0837948 0.935043 
-34.4092 5.99343 -79.4664 111 111 103 0.282763 -0.0595958 0.957337 
-35.9345 10.3352 -79.3274 87 86 88 0.619642 0.172038 0.765798 
-33.474 7.79665 -80.242 62 60 72 0.277619 0.163863 0.946613 
-35.1597 11.039 -79.6989 99 93 102 0.575556 0.125121 0.808134 
-36.8252 5.50542 -78.4139 93 86 99 0.431957 0.209299 0.877273 
-38.0393 10.3285 -78.2884 88 81 93 0.720176 0.0558387 0.691541 
-33.3155 9.24166 -80.4686 87 84 95 0.487533 0.212824 0.846769 
-32.5488 6.56502 -80.6461 83 77 85 0.425086 0.122865 0.896775 
-35.807 8.84131 -79.0154 120 131 108 0.506949 0.126374 0.852662 
-35.909 9.244 -79.0608 134 148 124 -0.0974828 0.229148 0.968498 
-36.3659 6.82049 -78.9015 108 105 113 0.482854 0.157038 0.861505 
-34.8896 6.53247 -79.7621 84 87 83 0.363311 0.468943 0.805045 
-33.1748 8.74074 -80.5301 64 60 73 0.261767 0.130226 0.956305 
-33.9422 10.7722 -80.3658 94 89 100 0.503441 0.160924 0.848911 
-37.2175 7.01952 -78.4897 89 83 95 0.446332 -0.0391046 0.894013 
-37.612 7.17464 -78.3229 75 69 81 0.465341 0.0736211 0.882064 
-34.3966 7.45625 -79.9629 58 57 65 0.476388 0.21929 0.851449 
-33.2775 6.84024 -80.2793 119 112 124 0.473285 0.109438 0.874085 
-37.7623 10.7726 -78.4941 87 79 91 0.309109 -0.245849 0.9187 
-33.976 8.69432 -80.1144 32 30 40 0.281557 0.164582 0.945325 
-36.5427 9.47832 -78.8527 113 118 107 0.628266 0.0981208 0.771786 
-35.3043 8.49276 -79.1239 120 122 113 0.199752 0.723133 0.661194 
-36.6839 7.50735 -78.794 112 114 112 0.537389 0.00676812 0.843308 
-36.0363 7.77552 -79.1523 113 116 111 0.129333 0.00994868 0.991551 
-36.6472 10.3367 -78.8812 94 92 95 0.572021 0.263161 0.776877 
-35.0069 5.32551 -79.0745 112 119 98 0.642294 -0.152639 0.751106 
-37.5331 10.4334 -78.4901 83 76 86 0.650739 0.162306 0.741752 
-37.4018 7.42338 -78.2858 66 62 67 0.302828 -0.0111243 0.95298 
-34.2946 9.71868 -77.0689 110 123 105 0.518403 0.320612 0.792758 
-33.2415 9.5619 -80.6036 100 100 108 0.449163 0.139197 0.88254 
-35.78 9.44577 -79.2742 100 105 90 0.377281 0.230479 0.896961 
-37.6499 9.52134 -78.3864 93 88 97 0.423384 0.131688 0.896328 
-34.897 10.2234 -79.878 85 80 89 0.279195 0.185672 0.942112 
-36.2552 11.453 -79.4811 72 70 74 0.184051 -0.0173633 0.982763 
-36.2309 12.0944 -79.3336 94 84 97 0.465694 0.218529 0.85754 
-35.5973 9.8405 -79.0767 105 104 99 0.485014 0.229583 0.843833 
-33.8557 10.1199 -80.3493 103 99 109 0.515322 0.184795 0.836836 
-33.3572 9.57879 -80.5538 57 54 65 0.477406 0.18888 0.858142 
-33.4885 8.7724 -80.2327 71 68 79 0.323017 -0.64441 0.693106 
-36.1447 5.89834 -78.9991 82 76 85 0.537567 0.0994427 0.837337 
-36.3602 10.9241 -79.2476 72 69 72 0.539611 0.136741 0.830736 
-33.4683 6.72503 -80.0891 136 132 139 0.186703 0.019714 0.982219 
-36.0967 12.0367 -79.4061 132 123 134 0.326388 -0.461989 0.824643 
-33.5371 7.32198 -80.1706 41 39 49 0.439591 0.176713 0.880643 
